ncols         199
nrows         73
xllcorner     507408.56448
yllcorner     4969006.37459
cellsize      8.72918
NODATA_value  -9999
-9999 -9999 -9999 -9999 -9999 -9999 -9999 -9999 -9999 -9999 -9999 -9999 -9999 -9999 -9999 -9999 -9999 -9999 -9999 -9999 -9999 -9999 -9999 -9999 1257.2 1256 1254.6 1253.1 1251.3 1249.1 1246.3 1243.7 1241.9 1239.9 1237.1 1232.5 1227.3 1222.2 1216.2 1209.5 1203.3 1196.8 1190.3 1183.7 1176.6 1169.8 1163.5 1158.4 1156.1 1156.4 1157.4 1158 1157.7 1156.6 1154.6 1151.6 1147.4 1142.3 1137.6 1134.3 1131.3 1127.4 1122.5 1116.8 1111.1 1105.5 1100.9 1097.1 1092.5 1086.5 1079.8 1073.1 1066.4 1060 1053.5 1046.4 1039.1 1032.4 1026 1019.9 1012.6 1003.2 995.22 988.41 981.11 974.27 968.39 962.02 954.3 946.6 939.13 931.73 925.5 920.08 913.1 907.18 907.16 910.67 914.4 916.98 918.66 921.64 927.57 935.04 942.02 947.69 952 955.21 957.39 959.87 965.17 972.53 977.8 980.32 979.73 974.67 964.69 953.04 945.02 944.77 950.25 956.02 961.44 968.18 975.96 983.49 990.9 998.53 1006.2 1013.5 1020.4 1027.8 1036.2 1045.5 1055.1 1064.4 1073.5 1083.5 1092.8 1100.5 1108 1116 1124.5 1132.3 1139.6 1146.6 1151 1152.1 -9999 -9999 -9999 -9999 -9999 -9999 -9999 -9999 -9999 -9999 -9999 -9999 -9999 -9999 -9999 -9999 -9999 -9999 -9999 -9999 -9999 -9999 -9999 -9999 -9999 -9999 -9999 -9999 -9999 -9999 -9999 -9999 -9999 -9999 -9999 -9999 -9999 -9999 -9999 -9999 -9999 -9999 -9999 -9999 -9999 -9999 -9999 -9999 -9999 -9999 -9999
-9999 -9999 -9999 -9999 -9999 -9999 -9999 -9999 -9999 -9999 -9999 -9999 -9999 -9999 -9999 -9999 -9999 -9999 -9999 -9999 -9999 -9999 -9999 -9999 1252.3 1250.9 1249.5 1248.2 1246.8 1244.6 1241.7 1238.8 1236.8 1235.2 1232.9 1229.2 1224.2 1218 1210.1 1201.7 1194.9 1188.9 1182.5 1176 1169.9 1164.1 1158 1152.2 1149.1 1149.3 1150.2 1150.3 1149.6 1148.2 1146 1143.6 1141.3 1137.8 1133.2 1129.3 1127.1 1125.7 1122.7 1118.4 1113.8 1109.2 1104.8 1100.9 1096 1089.7 1082.7 1075.3 1068.1 1061.2 1054.6 1047.8 1040.3 1032.9 1026.5 1020.6 1013.5 1003.8 995.18 988.09 981.03 974.2 967.95 961.29 953.47 946.19 938.91 931.37 925.57 920.67 913.76 906.51 902.9 904.87 908.75 911.34 912.78 916.34 923.65 931.96 939.26 944.4 948.42 951.78 954 956.8 961.81 967.91 972.98 975.11 973.73 965.69 953.82 942.87 937.27 942.01 949.92 956.1 961.63 968.45 976.05 983.28 990.34 997.66 1005.3 1012.8 1020.3 1028.2 1036.5 1044.9 1053.7 1063.2 1072.6 1082 1090.5 1097.7 1105.1 1113.7 1122.2 1129.2 1137.1 1146.3 1151.6 1152.5 -9999 -9999 -9999 -9999 -9999 -9999 -9999 -9999 -9999 -9999 -9999 -9999 -9999 -9999 -9999 -9999 -9999 -9999 -9999 -9999 -9999 -9999 -9999 -9999 -9999 -9999 -9999 -9999 -9999 -9999 -9999 -9999 -9999 -9999 -9999 -9999 -9999 -9999 -9999 -9999 -9999 -9999 -9999 -9999 -9999 -9999 -9999 -9999 -9999 -9999 -9999
-9999 -9999 -9999 -9999 -9999 -9999 -9999 -9999 -9999 -9999 -9999 -9999 -9999 -9999 -9999 -9999 -9999 -9999 -9999 -9999 -9999 -9999 -9999 -9999 1247.7 1246.2 1244.7 1243.4 1242.1 1240.2 1237.5 1234.2 1231.7 1230 1228 1224.8 1220.6 1214.5 1205.7 1195.7 1186.9 1180 1174.3 1169.1 1164.2 1158.9 1152.4 1146.4 1143.1 1142.9 1143.4 1143 1141.5 1139.8 1138.4 1137.3 1136.1 1133.4 1129.2 1124.7 1122.6 1122.2 1120.6 1117.8 1114.4 1110.8 1106.9 1103 1098.4 1091.4 1083.2 1075.7 1068.3 1061.3 1054.8 1047.9 1040.1 1032.8 1026.7 1020.7 1013.4 1003.7 994.53 987.13 980.33 973.57 967.01 960.61 954.14 947.96 940.69 933.9 928.45 922.06 914.57 907.58 902.43 901.47 903.56 906.11 908.78 912.77 919.35 927.91 935.42 940.77 944.62 947.62 949.65 952.58 957.68 962.91 966.46 967.73 964.09 952.6 940.08 934.67 936.55 942.87 949.89 955.73 961.34 968.16 975.56 982.47 989.23 996.28 1003.8 1011.6 1019.7 1028.2 1036.8 1044.8 1052.7 1061.2 1070.1 1078.9 1087.2 1094.5 1101.8 1109.8 1117.7 1125.2 1134 1144.2 1150.7 1152.4 -9999 -9999 -9999 -9999 -9999 -9999 -9999 -9999 -9999 -9999 -9999 -9999 -9999 -9999 -9999 -9999 -9999 -9999 -9999 -9999 -9999 -9999 -9999 -9999 -9999 -9999 -9999 -9999 -9999 -9999 -9999 -9999 -9999 -9999 -9999 -9999 -9999 -9999 -9999 -9999 -9999 -9999 -9999 -9999 -9999 -9999 -9999 -9999 -9999 -9999 -9999
-9999 -9999 -9999 -9999 -9999 -9999 -9999 -9999 -9999 -9999 -9999 -9999 -9999 -9999 -9999 -9999 -9999 -9999 -9999 -9999 -9999 -9999 -9999 -9999 1243.7 1242.2 1240.7 1239.1 1237.3 1235.4 1233.1 1229.7 1226.5 1224.4 1222.4 1219.6 1215.6 1209.5 1200.4 1189.9 1180.1 1172.5 1167.9 1164 1159.4 1153.9 1147.7 1141.9 1138 1136.7 1136.5 1135.7 1133.9 1132.2 1131.2 1131 1130.4 1128.3 1125 1121.3 1118.9 1117.8 1116.9 1115.5 1113.6 1111.2 1108 1104.1 1099.8 1092.3 1082.9 1074.9 1067.4 1060.5 1054.3 1047.6 1039.9 1033 1027.4 1021.2 1013.3 1003.7 994.68 987.21 979.96 973.17 967.43 962.35 957.6 951.88 943.92 936.49 930.63 923.28 915.13 908.43 902.91 899.81 900.34 902.4 905.39 909.71 915.7 923.17 930.08 935.87 940.07 942.72 945.19 949.03 953.85 958.13 960.69 959.97 951.12 937.72 928.73 929.04 935.54 942.8 949.39 955.1 960.67 967.15 974.35 980.97 987.11 993.81 1001.4 1009.6 1018.3 1027.5 1036.6 1045.1 1052.7 1059.8 1067.8 1076.7 1085.9 1094.4 1101.4 1108 1115.1 1123.2 1132.9 1142 1148.3 1151.8 -9999 -9999 -9999 -9999 -9999 -9999 -9999 -9999 -9999 -9999 -9999 -9999 -9999 -9999 -9999 -9999 -9999 -9999 -9999 -9999 -9999 -9999 -9999 -9999 -9999 -9999 -9999 -9999 -9999 -9999 -9999 -9999 -9999 -9999 -9999 -9999 -9999 -9999 -9999 -9999 -9999 -9999 -9999 -9999 -9999 -9999 -9999 -9999 -9999 -9999 -9999
-9999 -9999 -9999 -9999 -9999 -9999 -9999 -9999 -9999 -9999 -9999 -9999 -9999 -9999 -9999 -9999 -9999 -9999 -9999 -9999 -9999 -9999 -9999 -9999 1240.2 1239 1237.4 1235.3 1232.5 1230.1 1227.9 1224.7 1221.1 1218.3 1215.8 1212.9 1209.2 1202.8 1193.7 1183.8 1174.5 1167.7 1163.6 1159.8 1154.9 1149.3 1143.7 1137.9 1132.8 1130.1 1129.4 1128.8 1127.1 1125.5 1124.8 1124.9 1124.8 1123.3 1120.9 1118.1 1115.3 1113.1 1112.4 1112.2 1111.5 1110.1 1107.7 1104.4 1100.5 1093.3 1083.2 1074.1 1066.6 1060.1 1054.2 1047.8 1040.7 1034.5 1029.4 1023.3 1015.4 1006.6 998.73 991.5 982.99 975.45 970.45 965.88 960.79 954.04 945.85 938.22 931.66 923.75 915.49 909.01 903.29 898.92 898.09 899.72 902.73 906.94 912.24 918.43 924.64 930.28 934.63 937.59 940.91 945.4 949.96 953.53 954.57 950.53 938.67 926.54 922.26 926.6 934.68 942.14 948.44 954.02 959.3 965.13 972.05 978.57 984.29 990.84 998.88 1007.7 1016.9 1026.2 1035.5 1044.4 1052 1058.6 1066.2 1075.2 1085.2 1094.4 1101.2 1106.9 1113.7 1122.1 1130.9 1138.9 1145.7 1151.1 -9999 -9999 -9999 -9999 -9999 -9999 -9999 -9999 -9999 -9999 -9999 -9999 -9999 -9999 -9999 -9999 -9999 -9999 -9999 -9999 -9999 -9999 -9999 -9999 -9999 -9999 -9999 -9999 -9999 -9999 -9999 -9999 -9999 -9999 -9999 -9999 -9999 -9999 -9999 -9999 -9999 -9999 -9999 -9999 -9999 -9999 -9999 -9999 -9999 -9999 -9999
-9999 -9999 -9999 -9999 -9999 -9999 -9999 -9999 -9999 -9999 -9999 -9999 -9999 -9999 -9999 -9999 -9999 -9999 -9999 -9999 -9999 -9999 -9999 -9999 1237.1 1236 1234.3 1231.6 1227.8 1224.5 1222.2 1219.6 1216.1 1212.2 1208 1204.7 1201.2 1195.1 1186.3 1177.2 1169.3 1163.9 1159.8 1155.5 1150.5 1145.4 1140.2 1134.1 1127.6 1123.8 1122.7 1122.3 1121.2 1119.9 1119.2 1119.3 1119.4 1118.5 1116.8 1114.8 1111.9 1108.8 1107.6 1108 1108.2 1107.6 1106.4 1104.1 1100.9 1094.4 1084.2 1074.4 1066.9 1060.9 1055.3 1049.5 1043.2 1037.5 1032.5 1027 1020.5 1013.3 1006.3 999.09 989.64 980.87 975 969.39 962.64 954.86 947.06 939.69 932.48 924.35 916.43 909.97 903.95 899.01 896.62 897.39 900.26 904.13 908.76 914.05 919.63 924.78 929.02 932.65 936.74 941.17 945.18 948.1 947.65 940.99 929.13 919.39 918.24 924.85 933.4 940.59 946.6 952.07 957.07 962.2 968.51 975.12 981.4 988.53 997.39 1006.8 1015.8 1024.6 1033.6 1042.3 1050.1 1057 1064.4 1073.2 1083.2 1092.6 1099.4 1104.6 1110.7 1118.8 1127.4 1135.1 1143.2 1150.3 -9999 -9999 -9999 -9999 -9999 -9999 -9999 -9999 -9999 -9999 -9999 -9999 -9999 -9999 -9999 -9999 -9999 -9999 -9999 -9999 -9999 -9999 -9999 -9999 -9999 -9999 -9999 -9999 -9999 -9999 -9999 -9999 -9999 -9999 -9999 -9999 -9999 -9999 -9999 -9999 -9999 -9999 -9999 -9999 -9999 -9999 -9999 -9999 -9999 -9999 -9999
-9999 -9999 -9999 -9999 -9999 -9999 -9999 -9999 -9999 -9999 -9999 -9999 -9999 -9999 -9999 -9999 -9999 -9999 -9999 -9999 -9999 -9999 -9999 -9999 1234 1232.7 1230.6 1227.4 1223 1219 1216.5 1214.6 1211.3 1206 1199.5 1195.5 1192.4 1186.9 1178.8 1170.4 1164.1 1159.5 1155.3 1150.8 1146.3 1142 1137 1130.4 1123.1 1118.5 1116.8 1116.6 1116 1114.9 1114.2 1114 1114.1 1113.5 1112.5 1111 1108.3 1104.6 1102.6 1102.9 1103.7 1104.3 1104.4 1103.3 1101 1095 1085.4 1075.9 1068.8 1063.1 1058 1052.7 1047.3 1041.8 1036.5 1031.6 1026.9 1021.5 1014.7 1006.8 997.12 987.33 979.32 971.84 964.11 956.83 949.8 942.58 934.88 926.71 919.06 912.23 905.86 900.62 896.35 895.25 897.4 900.97 905.16 909.93 914.97 919.7 923.86 927.99 932.4 936.24 939.35 941.58 940.34 932.99 923.01 915.48 915.46 922.61 931.12 937.89 943.68 949.28 954.32 959.13 964.77 971.7 979.46 987.69 996.99 1006.4 1014.8 1022.7 1030.9 1039.2 1046.9 1054.2 1061.7 1069.9 1079.1 1088.2 1095.3 1100.6 1105.6 1112.7 1122.3 1130.8 1140.3 1149 -9999 -9999 -9999 -9999 -9999 -9999 -9999 -9999 -9999 -9999 -9999 -9999 -9999 -9999 -9999 -9999 -9999 -9999 -9999 -9999 -9999 -9999 -9999 -9999 -9999 -9999 -9999 -9999 -9999 -9999 -9999 -9999 -9999 -9999 -9999 -9999 -9999 -9999 -9999 -9999 -9999 -9999 -9999 -9999 -9999 -9999 -9999 -9999 -9999 -9999 -9999
-9999 -9999 -9999 -9999 -9999 -9999 -9999 -9999 -9999 -9999 -9999 -9999 -9999 -9999 -9999 -9999 -9999 -9999 -9999 -9999 -9999 -9999 -9999 -9999 1230.4 1228.5 1225.8 1222.4 1218.2 1213.8 1211.1 1209.4 1205.7 1199.2 1191.6 1186.8 1183.6 1178.2 1171 1164.1 1158.9 1154.6 1150.3 1146.2 1142.6 1138.9 1133.8 1126.7 1119.7 1114.5 1111.8 1111.4 1111.1 1110 1108.9 1108.5 1108.4 1108 1107.4 1106 1103.3 1099.3 1096.8 1097.1 1098.6 1100.2 1101.4 1101.8 1100.5 1094.8 1085.9 1077.9 1071.7 1066.5 1061.7 1056.8 1051.9 1046.6 1040.8 1035.6 1031.4 1027 1020.6 1011.8 1001.5 991.45 982.43 974 967.34 962.13 955.98 948.61 940.54 932.19 924.11 916.46 909.68 903.89 897.95 893.84 894.02 897.34 901.36 905.68 910.27 914.82 919.1 923.28 927.48 930.85 933.25 934.87 933.62 927.1 919.27 914.2 914.89 920.82 928.03 934.42 940.31 946.33 951.86 957 962.53 969.92 979.11 988.06 996.61 1004.9 1012.7 1019.9 1027.5 1035.3 1042.7 1050.2 1057.6 1065 1073 1081.6 1089.4 1095.7 1100.4 1106.2 1116.2 1126.3 1136.9 1147 -9999 -9999 -9999 -9999 -9999 -9999 -9999 -9999 -9999 -9999 -9999 -9999 -9999 -9999 -9999 -9999 -9999 -9999 -9999 -9999 -9999 -9999 -9999 -9999 -9999 -9999 -9999 -9999 -9999 -9999 -9999 -9999 -9999 -9999 -9999 -9999 -9999 -9999 -9999 -9999 -9999 -9999 -9999 -9999 -9999 -9999 -9999 -9999 -9999 -9999 -9999
-9999 -9999 -9999 -9999 -9999 -9999 -9999 -9999 -9999 -9999 -9999 -9999 -9999 -9999 -9999 -9999 -9999 -9999 -9999 -9999 -9999 -9999 -9999 -9999 -9999 1223.7 1220.8 1217.6 1213.7 1209.3 1205.4 1202.3 1198.2 1192.9 1186.5 1179.9 1174.6 1169.3 1163.4 1158.1 1153.3 1149.3 1145.9 1142.7 1139.6 1135.8 1130.4 1123.7 1117.3 1111.4 1106.3 1104.2 1104.2 1103.8 1102.9 1102 1101.4 1101.4 1101.2 1099.7 1097.1 1093.9 1090.6 1089.5 1091.2 1093.8 1095.9 1097.4 1097.3 1092.8 1085.3 1079.1 1074.1 1069.3 1064.8 1060.5 1055.9 1051.2 1045.8 1040 1035.3 1031.1 1025.7 1017.4 1006.5 995.63 986.2 978.2 973.08 968.99 963.68 956.56 948.19 939.1 930.13 921.9 914.56 907.98 901.38 894.28 891.32 893.61 897.44 901.39 905.53 909.84 914.14 918.21 922.05 925.16 927.33 928.78 928.13 923.56 917.28 913.58 914.71 919.75 926.18 932.45 938.52 944.81 950.76 956.2 961.96 969.43 978.59 987.34 994.44 1001.3 1008.6 1015.8 1023 1030.4 1037.7 1044.9 1052.1 1059.1 1065.7 1073.3 1081.8 1089.4 1095.6 1101.7 1110.9 1122.7 1134.5 1145 -9999 -9999 -9999 -9999 -9999 -9999 -9999 -9999 -9999 -9999 -9999 -9999 -9999 -9999 -9999 -9999 -9999 -9999 -9999 -9999 -9999 -9999 -9999 -9999 -9999 -9999 -9999 -9999 -9999 -9999 -9999 -9999 -9999 -9999 -9999 -9999 -9999 -9999 -9999 -9999 -9999 -9999 -9999 -9999 -9999 -9999 -9999 -9999 -9999 -9999 -9999
-9999 -9999 -9999 -9999 -9999 -9999 -9999 -9999 -9999 -9999 -9999 -9999 -9999 -9999 -9999 -9999 -9999 -9999 -9999 -9999 -9999 -9999 -9999 -9999 -9999 -9999 1215.8 1213 1209.7 1205.7 1201.3 1197 1192.8 1188.2 1183 1176.2 1169.5 1163.3 1157.4 1152.2 1148.1 1144.9 1142.2 1139.7 1136.6 1132.3 1126.7 1120.8 1115.2 1109.2 1102.4 1098.2 1097 1096.6 1096 1094.8 1093.8 1094.3 1094.5 1093.3 1091 1088 1083.7 1080.7 1082 1085.5 1088.6 1090.6 1091.5 1089 1083.8 1078.8 1074.5 1070.1 1066 1062.5 1058.2 1053.7 1049.8 1044.8 1039.3 1035 1029.5 1021.8 1012.2 1002.2 993.07 985.16 979.16 974.08 969.02 962.95 955.13 945.3 935.26 926.32 918.2 911.1 904.53 896.47 890.45 890.19 893.68 897.42 901.04 904.73 908.65 912.45 915.89 918.98 921.53 923.27 923.41 920.39 915 911.77 913.73 919.55 926.08 932.24 938.35 944.27 950.24 955.5 960.62 967.08 974.59 982.51 990.22 996.34 1002.3 1009.5 1017.6 1025.5 1032.6 1039.9 1047.5 1054.7 1061.1 1068 1076 1083.4 1089.9 1097.8 1109.2 1121.9 1133.4 1143.1 -9999 -9999 -9999 -9999 -9999 -9999 -9999 -9999 -9999 -9999 -9999 -9999 -9999 -9999 -9999 -9999 -9999 -9999 -9999 -9999 -9999 -9999 -9999 -9999 -9999 -9999 -9999 -9999 -9999 -9999 -9999 -9999 -9999 -9999 -9999 -9999 -9999 -9999 -9999 -9999 -9999 -9999 -9999 -9999 -9999 -9999 -9999 -9999 -9999 -9999 -9999
-9999 -9999 -9999 -9999 -9999 -9999 -9999 -9999 -9999 -9999 -9999 -9999 -9999 -9999 -9999 -9999 -9999 -9999 -9999 -9999 -9999 -9999 -9999 -9999 -9999 -9999 -9999 1208.6 1205.9 1202.6 1198.6 1194.3 1189.8 1185.1 1180.2 1174.3 1167.5 1160.6 1153.7 1147.7 1143.6 1140.9 1138.9 1136.4 1132.8 1128.3 1123.1 1118 1113.1 1107.5 1100.9 1095 1091.1 1089.5 1088.9 1087.4 1085.6 1085.7 1086.2 1085.6 1083.9 1081.3 1076.9 1072.9 1073.2 1077.4 1081.7 1084.1 1085.2 1084.4 1081.2 1076.9 1072.8 1068.8 1065.1 1061.7 1057.3 1053.2 1050.4 1046.6 1041.9 1037.8 1031.9 1024.3 1016.1 1007.5 998.96 991.26 984.75 978.39 972.64 967.03 960.11 950.62 940.02 930.05 921.07 913.33 906.45 898.39 890.54 887.62 890.14 893.68 896.98 900.17 903.49 906.71 909.67 912.62 915.42 917.53 918.45 916.73 911 908.05 912.03 919.16 925.26 931.1 937.05 942.82 948.69 953.6 957.98 963.01 968.59 975.4 983.36 990.72 997.87 1006.1 1014.7 1022.3 1029.4 1037.7 1046.4 1053.9 1060.3 1067.1 1074.2 1080.3 1086.5 1095.4 1107.6 1120.6 1132 1140.6 -9999 -9999 -9999 -9999 -9999 -9999 -9999 -9999 -9999 -9999 -9999 -9999 -9999 -9999 -9999 -9999 -9999 -9999 -9999 -9999 -9999 -9999 -9999 -9999 -9999 -9999 -9999 -9999 -9999 -9999 -9999 -9999 -9999 -9999 -9999 -9999 -9999 -9999 -9999 -9999 -9999 -9999 -9999 -9999 -9999 -9999 -9999 -9999 -9999 -9999 -9999
-9999 -9999 -9999 -9999 -9999 -9999 -9999 -9999 -9999 -9999 -9999 -9999 -9999 -9999 -9999 -9999 -9999 -9999 -9999 -9999 -9999 -9999 -9999 -9999 -9999 -9999 -9999 1204.6 1202.4 1199.7 1196.5 1192.8 1188.5 1183.8 1178.4 1172.7 1166.6 1160 1152.5 1145 1139.4 1136.4 1134.1 1131.3 1127.7 1123.7 1119.4 1115.2 1111 1106.1 1100.5 1093.9 1087.7 1083.6 1081.9 1080.5 1077.8 1076.6 1077 1077.2 1076.3 1074.3 1070.8 1066.7 1065.3 1068.8 1073.2 1076.2 1078.3 1079.1 1077.6 1074.1 1070 1066.2 1062.4 1058.3 1053.7 1049.9 1047.5 1044.8 1041.3 1037.4 1031.4 1024.6 1017.6 1010 1002.2 995.07 988.66 981.72 975.24 969.42 963.06 954.85 944.6 933.6 923.76 914.94 907.5 899.79 891.37 886.13 886.61 889.94 893.22 896.21 899.04 901.63 903.96 906.39 908.93 911.16 912.64 911.78 906.48 904.61 910.26 917.94 923.35 928.58 934.15 939.94 945.53 950.31 954.69 959.34 964.46 970.77 978.68 987.68 996.97 1006.5 1015 1021.8 1029.3 1038.5 1047.5 1055 1061.5 1068.2 1074.4 1079.4 1085.1 1093.8 1105.8 1118.7 1130.4 1138.5 -9999 -9999 -9999 -9999 -9999 -9999 -9999 -9999 -9999 -9999 -9999 -9999 -9999 -9999 -9999 -9999 -9999 -9999 -9999 -9999 -9999 -9999 -9999 -9999 -9999 -9999 -9999 -9999 -9999 -9999 -9999 -9999 -9999 -9999 -9999 -9999 -9999 -9999 -9999 -9999 -9999 -9999 -9999 -9999 -9999 -9999 -9999 -9999 -9999 -9999 -9999
-9999 -9999 -9999 -9999 -9999 -9999 -9999 -9999 -9999 -9999 -9999 -9999 -9999 -9999 -9999 -9999 -9999 -9999 -9999 -9999 -9999 -9999 -9999 -9999 -9999 -9999 -9999 -9999 1199.3 1197 1194.3 1191.4 1188 1183.6 1177.5 1171.3 1166 1160.2 1153 1144.3 1136.4 1131.7 1128 1124.5 1121.4 1118.3 1115.2 1112 1108.5 1104.7 1100.2 1093.7 1086.2 1079.7 1075.7 1073.6 1070.7 1068.3 1068.1 1068.9 1069 1067.8 1065.1 1061.3 1058.5 1059.7 1063.2 1066.7 1069.9 1072.1 1072.1 1069.8 1066.3 1062.5 1058.1 1053.2 1048.7 1045 1042.2 1039.5 1036.5 1032.9 1028 1022.7 1017 1010.2 1003.1 996.68 990.7 983.95 977.12 970.85 964.65 957.74 948.23 936.61 926.15 916.19 908.16 900.75 892.58 885.69 883.31 885.67 889.22 892.51 895.28 897.47 899.24 901.02 902.96 904.88 906.36 905.95 902.44 902.22 907.96 914.98 919.88 924.52 930 936.26 941.99 947.41 952.6 957.76 963.55 970.1 978.18 988.05 998.46 1008.6 1016.8 1023.5 1031.4 1040.6 1049.2 1056.4 1062.9 1069.4 1075 1079.4 1084.6 1092.7 1104.3 1116.7 1128.2 1136.4 1138.9 -9999 -9999 -9999 -9999 -9999 -9999 -9999 -9999 -9999 -9999 -9999 -9999 -9999 -9999 -9999 -9999 -9999 -9999 -9999 -9999 -9999 -9999 -9999 -9999 -9999 -9999 -9999 -9999 -9999 -9999 -9999 -9999 -9999 -9999 -9999 -9999 -9999 -9999 -9999 -9999 -9999 -9999 -9999 -9999 -9999 -9999 -9999 -9999 -9999 -9999
-9999 -9999 -9999 -9999 -9999 -9999 -9999 -9999 -9999 -9999 -9999 -9999 -9999 -9999 -9999 -9999 -9999 -9999 -9999 -9999 -9999 -9999 -9999 -9999 -9999 -9999 -9999 -9999 -9999 1194.6 1192.4 1190.1 1187.7 1183.8 1177.2 1170.5 1165.6 1160.6 1153.7 1145 1136.3 1129.3 1123.2 1118.3 1114.9 1112.3 1110 1107.9 1105.5 1102.8 1099.2 1092.9 1085.2 1077.6 1071 1066.6 1063.9 1061.1 1060.4 1061.4 1062.4 1061.7 1059.2 1055.5 1051.9 1051.2 1053.9 1057.5 1060.6 1063.2 1064.2 1063.5 1061.2 1057.3 1052.5 1047.7 1043.2 1039.2 1035.6 1031.8 1028.4 1025.8 1023.1 1019.8 1015.3 1009.5 1003 997.03 991.43 985.14 978.33 971.85 965.67 959.21 950.1 938.49 927.75 917.12 908.72 901.48 893.78 886.09 880.92 881.06 884.66 888.57 891.73 893.95 895.55 896.97 898.34 899.63 900.46 900.05 898.93 900.2 904.6 910.16 915.14 919.94 926.16 933.41 940.03 946.69 952.82 958.47 964.91 972.04 980.51 990.3 1000.4 1010.2 1018.6 1025.8 1033.7 1042.3 1050.3 1057.3 1063.6 1069.9 1075.2 1079.4 1084.2 1091.9 1103.1 1114.9 1125.6 1133.9 1137.8 -9999 -9999 -9999 -9999 -9999 -9999 -9999 -9999 -9999 -9999 -9999 -9999 -9999 -9999 -9999 -9999 -9999 -9999 -9999 -9999 -9999 -9999 -9999 -9999 -9999 -9999 -9999 -9999 -9999 -9999 -9999 -9999 -9999 -9999 -9999 -9999 -9999 -9999 -9999 -9999 -9999 -9999 -9999 -9999 -9999 -9999 -9999 -9999 -9999 -9999
-9999 -9999 -9999 -9999 -9999 -9999 -9999 -9999 -9999 -9999 -9999 -9999 -9999 -9999 -9999 -9999 -9999 -9999 -9999 -9999 -9999 -9999 -9999 -9999 -9999 -9999 -9999 -9999 -9999 -9999 1190.2 1188.7 1187.3 1184 1177.2 1170.3 1165.5 1160.6 1153.5 1145.3 1137.8 1130.4 1122.9 1115.9 1110.7 1106.1 1102.8 1102.3 1102 1100.7 1097 1090.6 1083.4 1076.4 1068.8 1061.7 1056.5 1053.1 1053.1 1054.4 1055.1 1054.3 1052 1048.6 1044.7 1043.4 1047 1051.4 1053.9 1055.4 1056.3 1056 1053.9 1050.5 1046.5 1042.3 1037.7 1032.9 1028.4 1024.7 1022.2 1020.7 1019.2 1016.9 1013.1 1008 1002.2 996.86 991.57 985.6 978.95 972.49 966.29 959.51 950.49 939.38 928.32 917.42 909.12 902.12 894.76 887.06 880.38 877.74 880.01 883.97 887.61 890.29 892.24 893.74 894.83 895.5 895.48 894.63 894.92 897.29 900.72 905.13 910.89 917.4 925.14 933.42 940.97 948.13 954.36 959.9 966.31 973.76 982.14 991.65 1001.7 1011.2 1019.7 1027.4 1035 1043.1 1050.8 1057.6 1063.8 1069.8 1075 1079.2 1084 1091.5 1102.3 1113.3 1123.1 1131.4 1136.7 -9999 -9999 -9999 -9999 -9999 -9999 -9999 -9999 -9999 -9999 -9999 -9999 -9999 -9999 -9999 -9999 -9999 -9999 -9999 -9999 -9999 -9999 -9999 -9999 -9999 -9999 -9999 -9999 -9999 -9999 -9999 -9999 -9999 -9999 -9999 -9999 -9999 -9999 -9999 -9999 -9999 -9999 -9999 -9999 -9999 -9999 -9999 -9999 -9999 -9999
-9999 -9999 -9999 -9999 -9999 -9999 -9999 -9999 -9999 -9999 -9999 -9999 -9999 -9999 -9999 -9999 -9999 -9999 -9999 -9999 -9999 -9999 -9999 -9999 -9999 -9999 -9999 -9999 -9999 -9999 -9999 1186.8 1185.8 1183.1 1177.2 1170.8 1165.7 1160.3 1152.8 1144.8 1138.5 1132 1124.8 1117.5 1111.1 1104.2 1098.7 1097 1096.2 1095.2 1092.5 1087.2 1081.2 1074.8 1066.9 1059.1 1052.8 1048.4 1047.2 1047.6 1047.9 1047.2 1044.9 1041.5 1037.9 1036.8 1038.8 1042.4 1045.7 1048 1049.1 1048.8 1046.9 1044.4 1041.4 1037.2 1032.1 1027.3 1023.5 1020.8 1019 1017.7 1016.5 1014.4 1010.9 1006.3 1001.2 996.3 991.42 985.76 979.28 972.85 966.48 959.32 949.89 938.37 927.22 917.12 909.46 902.77 895.93 888.81 881.92 877.25 876.45 879.1 882.8 885.9 888.35 890.18 891.19 891.5 891.14 890.46 891.96 895.29 899.16 904.03 910.65 918.45 926.72 934.99 942.42 949.11 955.11 960.86 967.34 974.84 983.08 992.34 1002.1 1011.4 1020.2 1028 1035.2 1043.2 1050.9 1057.5 1063.4 1069.2 1074.4 1078.9 1083.9 1091.4 1101.6 1111.8 1120.8 1129 1135.6 -9999 -9999 -9999 -9999 -9999 -9999 -9999 -9999 -9999 -9999 -9999 -9999 -9999 -9999 -9999 -9999 -9999 -9999 -9999 -9999 -9999 -9999 -9999 -9999 -9999 -9999 -9999 -9999 -9999 -9999 -9999 -9999 -9999 -9999 -9999 -9999 -9999 -9999 -9999 -9999 -9999 -9999 -9999 -9999 -9999 -9999 -9999 -9999 -9999 -9999
-9999 -9999 -9999 -9999 -9999 -9999 -9999 -9999 -9999 -9999 -9999 -9999 -9999 -9999 -9999 -9999 -9999 -9999 -9999 -9999 -9999 -9999 -9999 -9999 -9999 -9999 -9999 -9999 -9999 -9999 -9999 1184.5 1183.6 1181.4 1176.8 1171.5 1166.3 1160.2 1152.6 1145.1 1139 1132.8 1126.4 1119.8 1113.3 1106.1 1099.7 1095 1090.6 1088.4 1086.2 1082.2 1077.6 1071.6 1063.9 1056.3 1049.6 1043.6 1041 1041.3 1041.9 1041.6 1039.5 1035.8 1032 1029.8 1031.1 1034.2 1037.1 1039.3 1040.6 1041 1040.1 1038.5 1035.8 1031.6 1027.1 1023 1019.6 1017.1 1015.9 1015 1013.4 1011.1 1008.1 1004.3 999.96 995.21 990.54 985.35 979.45 973.14 966.4 957.86 947.04 935.64 925.48 916.76 910.37 904.67 898.35 891.41 884.14 878.04 874.98 874.98 877.92 881.61 884.37 885.97 886.61 886.6 886.43 887.33 890.08 894.53 899.84 905.78 912.72 920.17 927.85 935.6 942.83 949.49 955.46 961.21 967.71 975.18 983.31 992.32 1001.7 1011 1020.2 1028.1 1034.7 1042.3 1050.1 1056.7 1062.5 1068.2 1073.4 1078.2 1083.8 1091.4 1101.1 1110.4 1118.3 1125.9 1133.4 1136.6 -9999 -9999 -9999 -9999 -9999 -9999 -9999 -9999 -9999 -9999 -9999 -9999 -9999 -9999 -9999 -9999 -9999 -9999 -9999 -9999 -9999 -9999 -9999 -9999 -9999 -9999 -9999 -9999 -9999 -9999 -9999 -9999 -9999 -9999 -9999 -9999 -9999 -9999 -9999 -9999 -9999 -9999 -9999 -9999 -9999 -9999 -9999 -9999 -9999
-9999 -9999 -9999 -9999 -9999 -9999 -9999 -9999 -9999 -9999 -9999 -9999 -9999 -9999 -9999 -9999 -9999 -9999 -9999 -9999 -9999 -9999 -9999 -9999 -9999 -9999 -9999 -9999 -9999 -9999 -9999 1182.3 1181.5 1179.7 1176.4 1172.3 1167.3 1161.1 1153.8 1146.3 1140 1134 1128.1 1122 1115.6 1108.7 1102.5 1096.5 1090 1085.5 1081.4 1076.6 1071.6 1065.9 1059.4 1052.8 1046.2 1039.8 1036 1035.2 1035.5 1035.5 1034.1 1031.3 1027.5 1024.6 1024.8 1027.1 1029.2 1030.9 1032.3 1033.1 1033.1 1032.1 1029.7 1026.1 1022.5 1019.6 1016.6 1013.6 1011.6 1010 1008.6 1006.9 1004.6 1001.7 998.14 993.82 989.38 984.62 979.31 973.07 965.82 956.48 945.41 934.9 925.99 918.47 912.91 907.52 901.26 894.34 886.74 879.71 875.3 872.89 873.43 876.97 880.58 882.12 882.27 881.73 882.2 885.45 889.84 895.01 901.06 907.54 914.34 921.36 928.6 935.83 942.73 949.39 955.35 960.92 967.28 974.73 982.89 991.69 1000.6 1009.6 1019 1027 1033.2 1040.4 1048.2 1054.7 1060.6 1066.2 1071.4 1076.9 1083.4 1091.3 1100.3 1108.4 1115.3 1122.2 1129.3 1133.2 -9999 -9999 -9999 -9999 -9999 -9999 -9999 -9999 -9999 -9999 -9999 -9999 -9999 -9999 -9999 -9999 -9999 -9999 -9999 -9999 -9999 -9999 -9999 -9999 -9999 -9999 -9999 -9999 -9999 -9999 -9999 -9999 -9999 -9999 -9999 -9999 -9999 -9999 -9999 -9999 -9999 -9999 -9999 -9999 -9999 -9999 -9999 -9999 -9999
-9999 -9999 -9999 -9999 -9999 -9999 -9999 -9999 -9999 -9999 -9999 -9999 -9999 -9999 -9999 -9999 -9999 -9999 -9999 -9999 -9999 -9999 -9999 -9999 -9999 -9999 -9999 -9999 -9999 -9999 -9999 1180.3 1179.6 1178.3 1176 1173.1 1168.4 1162.5 1155.5 1148 1141.5 1135.7 1129.9 1123.8 1117.3 1110.8 1105.1 1099.3 1092.7 1086.3 1079.9 1074 1067.2 1060.2 1054.2 1048.4 1042.3 1036.7 1032.3 1029.7 1029 1029.3 1028.9 1027 1023.3 1019.6 1019.2 1020.9 1022.4 1023.5 1024.5 1025.3 1025.5 1024.5 1022.3 1020.1 1018.2 1016.7 1014.3 1010.5 1006.7 1004 1002.8 1002 1000.6 998.51 995.78 992.24 988.14 983.7 978.79 972.53 964.96 955.9 945.74 936.19 928.17 921.43 915.93 909.98 903.33 896.31 888.64 881.43 876.29 872.25 870.37 872.43 876.04 878.05 878.44 878.05 879.49 884.23 889.54 895.07 901.45 908.15 914.85 921.67 928.62 935.36 941.93 948.58 954.56 960.09 966.41 973.8 981.82 990.26 999.02 1007.6 1016.2 1024.2 1030.7 1037.7 1044.9 1051.1 1057.6 1064 1069.7 1075.9 1083 1091 1099.4 1106 1111.7 1117.8 1124.3 1128.7 -9999 -9999 -9999 -9999 -9999 -9999 -9999 -9999 -9999 -9999 -9999 -9999 -9999 -9999 -9999 -9999 -9999 -9999 -9999 -9999 -9999 -9999 -9999 -9999 -9999 -9999 -9999 -9999 -9999 -9999 -9999 -9999 -9999 -9999 -9999 -9999 -9999 -9999 -9999 -9999 -9999 -9999 -9999 -9999 -9999 -9999 -9999 -9999 -9999
-9999 -9999 -9999 -9999 -9999 -9999 -9999 -9999 -9999 -9999 -9999 -9999 -9999 -9999 -9999 -9999 -9999 -9999 -9999 -9999 -9999 -9999 -9999 -9999 -9999 -9999 -9999 -9999 -9999 -9999 -9999 1178.3 1177.8 1177 1175.6 1173.5 1169.3 1163.6 1156.8 1149.6 1143.1 1137.5 1131.5 1124.8 1118.1 1112 1106.5 1101 1094.9 1088 1081.3 1075.4 1066.9 1057.6 1050.6 1044.8 1038.9 1034.2 1029.6 1025.6 1023.8 1023.8 1024 1022.5 1018.7 1014.6 1014 1015.4 1016.4 1017.1 1017.5 1017.8 1017.6 1015.9 1013.4 1012.5 1012.9 1013 1011.5 1007.8 1002.9 998.82 996.8 996.32 995.85 994.81 993.07 990.44 986.78 982.64 977.95 971.58 963.92 955.71 946.86 938.05 930.33 923.85 917.87 911.17 904.13 896.94 889.4 882.47 876.92 872.06 868.76 868.65 871.13 873.64 875.13 876.34 878.9 883.75 888.85 894.3 900.47 907.15 914.26 921.07 927.52 933.77 940.16 946.79 952.84 958.48 964.83 972.22 980.12 988.05 996.56 1004.5 1012.1 1019.7 1027 1034 1040.8 1047.2 1054.9 1062.4 1068.9 1075.3 1082.2 1090 1097.7 1103.1 1107.7 1113.1 1119.1 1124.3 -9999 -9999 -9999 -9999 -9999 -9999 -9999 -9999 -9999 -9999 -9999 -9999 -9999 -9999 -9999 -9999 -9999 -9999 -9999 -9999 -9999 -9999 -9999 -9999 -9999 -9999 -9999 -9999 -9999 -9999 -9999 -9999 -9999 -9999 -9999 -9999 -9999 -9999 -9999 -9999 -9999 -9999 -9999 -9999 -9999 -9999 -9999 -9999 -9999
-9999 -9999 -9999 -9999 -9999 -9999 -9999 -9999 -9999 -9999 -9999 -9999 -9999 -9999 -9999 -9999 -9999 -9999 -9999 -9999 -9999 -9999 -9999 -9999 -9999 -9999 -9999 -9999 -9999 -9999 -9999 1176.5 1176 1175.4 1174.5 1172.9 1169.3 1163.9 1157.6 1150.5 1144 1138.4 1132.1 1124.8 1117.8 1112 1106.7 1101.1 1095.1 1088.4 1082.3 1077 1068.8 1059.4 1051.7 1044.8 1038 1032.6 1027.4 1023.5 1020.8 1019.1 1018.6 1017.4 1014.6 1011.1 1009.7 1010.2 1010.9 1011.2 1011.2 1010.6 1009.7 1007.7 1004.6 1002.9 1004.6 1006.9 1007 1005.2 1001.2 995.83 990.83 989.72 990.44 990.65 990 988.18 985.03 981.33 976.81 970.32 962.57 954.79 946.82 938.71 931.01 924.3 917.83 911.05 904.08 896.83 889.38 882.58 876.74 871.51 867.57 866 867.25 869.58 872.56 876.65 880.29 884.74 889.17 893.9 898.94 905.18 912.99 919.73 925.46 931.25 937.57 944.12 950.18 955.9 962.17 969.61 977.79 985.35 993.1 1000.6 1007.6 1015 1022.9 1030.1 1037.1 1045 1054.1 1062.2 1068.5 1074.5 1080.6 1087.4 1094.2 1099.5 1103.9 1108.4 1113.8 1119.7 1122.1 -9999 -9999 -9999 -9999 -9999 -9999 -9999 -9999 -9999 -9999 -9999 -9999 -9999 -9999 -9999 -9999 -9999 -9999 -9999 -9999 -9999 -9999 -9999 -9999 -9999 -9999 -9999 -9999 -9999 -9999 -9999 -9999 -9999 -9999 -9999 -9999 -9999 -9999 -9999 -9999 -9999 -9999 -9999 -9999 -9999 -9999 -9999 -9999
-9999 -9999 -9999 -9999 -9999 -9999 -9999 -9999 -9999 -9999 -9999 -9999 -9999 -9999 -9999 -9999 -9999 -9999 -9999 -9999 -9999 -9999 -9999 -9999 -9999 -9999 -9999 -9999 -9999 -9999 -9999 1174.9 1174.5 1173.9 1172.9 1171.3 1167.9 1163.3 1157.5 1150.7 1144.2 1137.8 1130.7 1123.1 1116.1 1110.6 1105.8 1100.2 1093.7 1087 1081.7 1077 1069.5 1061.1 1054.3 1047.5 1039.4 1033.3 1028.2 1023.4 1018.2 1014.4 1013.5 1012.9 1010.1 1006 1004.9 1005.7 1006.3 1006.2 1005.6 1004 1002.1 1000 996.65 993.66 995.83 1001 1003.2 1002.7 999.64 993.85 987.84 984.95 984.65 985.32 985.66 984.81 982.6 979.59 975.14 968.68 960.84 952.69 944.72 937.1 929.99 923.21 916.62 909.78 902.9 896.15 889.17 882.23 875.98 870.16 865.62 863.77 864.51 866.97 871.9 878.2 882.83 887.9 892.17 895.66 899.42 904.78 911.8 918.22 923.95 929.31 935.3 941.57 947.25 953.12 959.27 965.94 974.69 982.77 990.09 997.55 1005.2 1013.1 1021.4 1029 1036.3 1044.8 1054.7 1062.7 1067.9 1072.7 1077.7 1083.1 1088.6 1094.5 1099.8 1104.4 1109.1 1114.4 1117.2 -9999 -9999 -9999 -9999 -9999 -9999 -9999 -9999 -9999 -9999 -9999 -9999 -9999 -9999 -9999 -9999 -9999 -9999 -9999 -9999 -9999 -9999 -9999 -9999 -9999 -9999 -9999 -9999 -9999 -9999 -9999 -9999 -9999 -9999 -9999 -9999 -9999 -9999 -9999 -9999 -9999 -9999 -9999 -9999 -9999 -9999 -9999 -9999
-9999 -9999 -9999 -9999 -9999 -9999 -9999 -9999 -9999 -9999 -9999 -9999 -9999 -9999 -9999 -9999 -9999 -9999 -9999 -9999 -9999 -9999 -9999 -9999 -9999 -9999 -9999 -9999 -9999 -9999 -9999 1173.4 1173 1172.2 1170.8 1168.4 1165.3 1161.5 1156.5 1150.2 1143.8 1137.2 1130.7 1124 1117.8 1112.4 1107.1 1101.4 1094.9 1087.7 1081.8 1075.6 1067.3 1060 1054.6 1048.6 1040.8 1034.6 1029.6 1024.8 1019.1 1013.6 1010.2 1007.7 1004.6 1001.2 1000.8 1001.6 1001.8 1001.6 1000.6 998.56 996.11 993.61 989.97 986.69 987.55 992.14 996.01 997.3 995.76 991.48 985.24 979.53 977.72 978.9 980.19 980.68 979.83 977.46 972.57 965.93 958.45 949.83 941.3 934.22 927.57 920.57 913.97 907.41 900.75 894.16 887.55 880.83 873.99 867.71 862.93 861.61 863.58 867.19 872.5 878.72 884.03 889.64 894.02 898.05 902.66 908.39 914.71 920.1 925.86 931.53 937.44 943.06 948.33 954.12 960.16 966.52 974.25 982.81 991.3 999.58 1007.7 1015.8 1023.7 1031.2 1038.3 1046.4 1055.2 1062.3 1066.7 1070.4 1074.5 1078.8 1083.4 1088.9 1094.7 1100.2 1105.4 1110.7 1114 -9999 -9999 -9999 -9999 -9999 -9999 -9999 -9999 -9999 -9999 -9999 -9999 -9999 -9999 -9999 -9999 -9999 -9999 -9999 -9999 -9999 -9999 -9999 -9999 -9999 -9999 -9999 -9999 -9999 -9999 -9999 -9999 -9999 -9999 -9999 -9999 -9999 -9999 -9999 -9999 -9999 -9999 -9999 -9999 -9999 -9999 -9999 -9999
-9999 -9999 -9999 -9999 -9999 -9999 -9999 -9999 -9999 -9999 -9999 -9999 -9999 -9999 -9999 -9999 -9999 -9999 -9999 -9999 -9999 -9999 -9999 -9999 -9999 -9999 -9999 -9999 -9999 -9999 1171.6 1171.6 1170.8 1169.3 1167 1164.2 1161.3 1157.9 1153 1147.5 1142.5 1137.4 1131.9 1126 1120.3 1114.9 1109.6 1104.1 1097.7 1090.5 1083.9 1076.4 1067.4 1060 1054.1 1047.8 1041.5 1035.7 1030.8 1026.2 1020.7 1014.5 1008.1 1002.9 999.77 996.71 995.75 996.31 996.44 995.94 994.68 992.61 990.22 987.57 983.87 980.02 979.53 983.76 989.02 991.99 992 988.54 982.29 975.62 971.62 971.22 972.78 974.11 973.88 971.81 967.48 961.62 954.68 946.03 937.6 930.9 924.22 917.25 911.03 904.85 898.17 891.37 884.67 877.84 870.79 864.43 859.76 859.39 862.95 867.52 872.78 878.61 883.92 889.38 894.33 899.55 905.53 911.84 917.7 922.72 928.38 934.48 940.48 946.21 951.45 956.86 962.91 969.37 976.75 985.13 993.94 1002.3 1010.2 1018.3 1026.3 1033.7 1040.6 1047.8 1055.3 1061.4 1065.1 1068 1071.2 1074.5 1078.5 1083.7 1089.3 1095.5 1101.5 1107.4 1111.4 -9999 -9999 -9999 -9999 -9999 -9999 -9999 -9999 -9999 -9999 -9999 -9999 -9999 -9999 -9999 -9999 -9999 -9999 -9999 -9999 -9999 -9999 -9999 -9999 -9999 -9999 -9999 -9999 -9999 -9999 -9999 -9999 -9999 -9999 -9999 -9999 -9999 -9999 -9999 -9999 -9999 -9999 -9999 -9999 -9999 -9999 -9999 -9999
-9999 -9999 -9999 -9999 -9999 -9999 -9999 -9999 -9999 -9999 -9999 -9999 -9999 -9999 -9999 -9999 -9999 -9999 -9999 -9999 -9999 -9999 -9999 -9999 -9999 -9999 -9999 -9999 -9999 -9999 1169.2 1169.1 1167.9 1165.4 1162.3 1159.3 1156.5 1152.9 1148.3 1143.8 1139.9 1136.2 1131.7 1126.7 1121.5 1116.2 1111.1 1105.9 1099.7 1092.9 1086 1078.2 1069.6 1061.9 1054.8 1047.9 1042 1036.5 1031.7 1027.3 1022.1 1016.2 1008.2 999.76 994.78 991.71 990.6 991.08 990.99 989.96 988.48 986.58 984.42 981.7 977.76 973.19 972.15 976.53 982.47 986.55 987.76 985.15 979.43 972.27 966.47 963.97 964.23 965.07 964.91 963.32 960.14 955.44 948.82 940.51 932.98 926.82 920.35 914 908.37 902.17 895.07 887.75 880.75 874.04 867.19 860.99 856.74 857.36 862.05 867.21 872.25 877.56 882.89 888.4 893.9 899.96 906.96 913.75 919.3 924.41 930.22 936.73 942.85 948.71 953.94 958.99 965.32 972.64 980.05 988.03 996.46 1004.3 1011.8 1019.8 1027.9 1035.2 1041.9 1048.6 1054.6 1059.3 1062.8 1065.5 1068 1070.9 1074.5 1079.4 1084.7 1090.6 1097.3 1104 1108 -9999 -9999 -9999 -9999 -9999 -9999 -9999 -9999 -9999 -9999 -9999 -9999 -9999 -9999 -9999 -9999 -9999 -9999 -9999 -9999 -9999 -9999 -9999 -9999 -9999 -9999 -9999 -9999 -9999 -9999 -9999 -9999 -9999 -9999 -9999 -9999 -9999 -9999 -9999 -9999 -9999 -9999 -9999 -9999 -9999 -9999 -9999 -9999
-9999 -9999 -9999 -9999 -9999 -9999 -9999 -9999 -9999 -9999 -9999 -9999 -9999 -9999 -9999 -9999 -9999 -9999 -9999 -9999 -9999 -9999 -9999 -9999 -9999 -9999 -9999 -9999 -9999 -9999 1166.5 1166.2 1164.7 1161.9 1158.3 1154.9 1151.5 1147.6 1143.4 1139.7 1136.3 1133.1 1129.3 1125.1 1120.5 1115.5 1110.6 1105.6 1099.8 1093.4 1086.6 1079.5 1071.9 1064.3 1056.6 1049.3 1042.8 1036.9 1032.2 1027.9 1023.1 1017.8 1009.9 999.74 992.04 987.58 985.11 984.89 984.79 983.76 982.39 980.71 978.62 975.7 971.46 966.76 965.75 970.09 976.32 981.13 983.02 981.31 976.47 969.25 962.55 958.07 955.74 954.6 953.45 952.07 950.16 947.17 941.35 933.77 927.6 922.19 916.43 911.09 906.13 899.88 892.51 884.85 877.2 870.09 863.7 857.84 854.54 856.1 861.05 866.22 871.11 876.22 881.78 887.67 893.4 899.38 906.44 913.56 919.36 924.75 930.76 937.51 943.92 949.99 955.13 959.83 966.57 975.15 982.66 990.18 998.09 1005.4 1012.6 1020.5 1028.5 1035.6 1042.1 1048.3 1052.9 1056.3 1059.3 1062 1064.4 1067.6 1071.9 1076.8 1081.4 1086.5 1093.3 1100.7 1104.5 -9999 -9999 -9999 -9999 -9999 -9999 -9999 -9999 -9999 -9999 -9999 -9999 -9999 -9999 -9999 -9999 -9999 -9999 -9999 -9999 -9999 -9999 -9999 -9999 -9999 -9999 -9999 -9999 -9999 -9999 -9999 -9999 -9999 -9999 -9999 -9999 -9999 -9999 -9999 -9999 -9999 -9999 -9999 -9999 -9999 -9999 -9999 -9999
-9999 -9999 -9999 -9999 -9999 -9999 -9999 -9999 -9999 -9999 -9999 -9999 -9999 -9999 -9999 -9999 -9999 -9999 -9999 -9999 -9999 -9999 -9999 -9999 -9999 -9999 -9999 -9999 -9999 -9999 1164 1163.5 1162.3 1159.9 1155.8 1151.2 1147.1 1142.8 1138.7 1135.3 1132.1 1128.9 1125.5 1121.8 1117.6 1112.8 1108.1 1103.4 1098.1 1092 1085.6 1079.4 1072.8 1065.5 1058 1050.8 1043.5 1037 1032.2 1028.1 1023.7 1018.7 1011.8 1002.5 993.57 986.12 979.92 977.46 977.27 976.84 975.9 974.52 972.52 969.56 965.4 961.25 959.82 963.17 969.72 975.3 977.8 976.86 972.7 966.26 959.88 954.16 949.25 945.37 942.18 940.26 939.07 937.69 933.39 927.2 922.33 917.68 912.85 908.42 903.99 898.2 891.3 883.91 875.61 867.29 860.8 855.15 853.26 855.73 860.17 864.79 869.61 874.99 880.93 887.24 892.88 898.12 904.43 911.72 918.33 923.86 929.88 936.86 943.72 950.03 955.1 959.61 966.63 976.14 983.96 991.27 998.85 1005.9 1012.9 1020.5 1028.2 1035.1 1041.1 1046.4 1050 1052.3 1054.4 1056.8 1060 1064.5 1070.3 1075.4 1079.5 1083.7 1090 1097.6 1101.7 -9999 -9999 -9999 -9999 -9999 -9999 -9999 -9999 -9999 -9999 -9999 -9999 -9999 -9999 -9999 -9999 -9999 -9999 -9999 -9999 -9999 -9999 -9999 -9999 -9999 -9999 -9999 -9999 -9999 -9999 -9999 -9999 -9999 -9999 -9999 -9999 -9999 -9999 -9999 -9999 -9999 -9999 -9999 -9999 -9999 -9999 -9999 -9999
-9999 -9999 -9999 -9999 -9999 -9999 -9999 -9999 -9999 -9999 -9999 -9999 -9999 -9999 -9999 -9999 -9999 -9999 -9999 -9999 -9999 -9999 -9999 -9999 -9999 -9999 -9999 -9999 -9999 -9999 1162.3 1162.3 1161.3 1158.4 1152.8 1147.4 1143 1138.1 1134 1131.1 1127.6 1124.1 1120.7 1117.1 1113 1108.7 1104.2 1099.5 1094.7 1089.4 1083.7 1078.2 1071.8 1064.8 1057.9 1050.9 1043.4 1036.6 1032 1028.2 1023.8 1018.9 1012.9 1005.2 996.35 987.12 978.51 972.86 970.15 968.84 967.93 966.94 965.83 963.89 960.52 956.29 952.75 954.28 960.93 967.25 971.41 971.25 967.23 962.2 957.69 952.83 947.09 941.15 936.33 933.27 931.4 929.45 926.2 922.22 918.3 913.99 909.62 905.57 901.37 896.58 891.01 884.55 876.59 867.38 859.2 852.99 852.24 855.45 859.27 863.09 867.68 873.42 879.84 886.18 891.68 896.55 902.13 909.36 916.61 921.92 927.73 935.24 942.47 948.77 954.09 958.94 965.89 975.42 984.2 991.94 999.27 1006 1012.7 1019.8 1027.1 1033.7 1038.8 1042.8 1045.6 1047.2 1048.2 1050.4 1055.2 1061.7 1068.5 1074.1 1078.1 1081.9 1087.4 1094.6 1099.9 -9999 -9999 -9999 -9999 -9999 -9999 -9999 -9999 -9999 -9999 -9999 -9999 -9999 -9999 -9999 -9999 -9999 -9999 -9999 -9999 -9999 -9999 -9999 -9999 -9999 -9999 -9999 -9999 -9999 -9999 -9999 -9999 -9999 -9999 -9999 -9999 -9999 -9999 -9999 -9999 -9999 -9999 -9999 -9999 -9999 -9999 -9999 -9999
-9999 -9999 -9999 -9999 -9999 -9999 -9999 -9999 -9999 -9999 -9999 -9999 -9999 -9999 -9999 -9999 -9999 -9999 -9999 -9999 -9999 -9999 -9999 -9999 -9999 -9999 -9999 -9999 -9999 -9999 1160.4 1160.8 1160 1156.5 1150.3 1145.2 1141.1 1137.1 1133.5 1129.7 1125.2 1120.8 1116 1111.7 1107.8 1103.6 1099.3 1094.8 1090.3 1085.5 1080.5 1075.5 1069 1062.1 1056 1049.5 1042 1035.7 1031.4 1027.7 1023.5 1018.8 1013.1 1006.1 997.75 988.85 980.79 972.77 966.04 962.66 961.76 961.18 960.21 958.71 956.32 952.82 949.39 948.82 951.51 955.45 959.77 961.63 959.76 956.85 954.44 950.98 946.05 940.6 934.57 929.02 925.74 923.58 921.18 918.41 914.83 910.38 905.99 902.07 898.47 894.74 890.26 884.91 877.78 868.42 859.23 851.64 850.63 854.23 857.86 861.17 865.43 871.19 878.01 883.97 889.36 894.27 899.54 906.17 913.17 919.04 924.76 931.52 939.01 946.57 952.99 958.29 964.87 974.14 984.06 992.3 999.38 1005.8 1012 1018.5 1024.6 1030.2 1035.2 1038.5 1040.4 1041.5 1042.8 1045.8 1051.7 1059.8 1066.8 1072.6 1076.8 1080.3 1085 1091.7 1098.1 -9999 -9999 -9999 -9999 -9999 -9999 -9999 -9999 -9999 -9999 -9999 -9999 -9999 -9999 -9999 -9999 -9999 -9999 -9999 -9999 -9999 -9999 -9999 -9999 -9999 -9999 -9999 -9999 -9999 -9999 -9999 -9999 -9999 -9999 -9999 -9999 -9999 -9999 -9999 -9999 -9999 -9999 -9999 -9999 -9999 -9999 -9999 -9999
-9999 -9999 -9999 -9999 -9999 -9999 -9999 -9999 -9999 -9999 -9999 -9999 -9999 -9999 -9999 -9999 -9999 -9999 -9999 -9999 -9999 -9999 -9999 -9999 -9999 -9999 -9999 -9999 -9999 -9999 1158.8 1159 1157.9 1154.4 1148.8 1144.2 1140.6 1137.2 1133.7 1129.7 1125.4 1120.8 1114.3 1109.2 1104.5 1099.7 1095 1089.9 1085.7 1081.4 1076.5 1070.9 1064.4 1058.5 1053.3 1047 1039.6 1034.3 1030.4 1026.7 1022.4 1017.7 1012.3 1005.4 997.55 989.44 981.53 973.57 966.69 961.8 958.47 956.35 955.44 954.52 952.67 949.18 944.93 943.37 945.31 947.75 950.08 951.41 951.34 950.68 949.53 947.11 943.69 939.34 933.32 927.56 922.57 918.44 915.51 912.92 909.73 906.15 902.18 898.44 895.05 891.74 887.87 883.58 877.75 869.1 860.12 852.18 849.2 851.7 855.75 859.14 863 868.18 874.78 880.88 886.05 890.95 896.12 901.92 908.45 915.59 922.57 929.49 937.22 946.11 953.08 957.62 963.46 972.23 982.16 990.76 998.29 1004.6 1010.2 1015.8 1020.8 1025.3 1029.5 1032.3 1034 1035.3 1037.3 1041.7 1049.2 1057.5 1064.4 1069.8 1074.3 1078.4 1082.9 1089.4 1096.6 -9999 -9999 -9999 -9999 -9999 -9999 -9999 -9999 -9999 -9999 -9999 -9999 -9999 -9999 -9999 -9999 -9999 -9999 -9999 -9999 -9999 -9999 -9999 -9999 -9999 -9999 -9999 -9999 -9999 -9999 -9999 -9999 -9999 -9999 -9999 -9999 -9999 -9999 -9999 -9999 -9999 -9999 -9999 -9999 -9999 -9999 -9999 -9999
-9999 -9999 -9999 -9999 -9999 -9999 -9999 -9999 -9999 -9999 -9999 -9999 -9999 -9999 -9999 -9999 -9999 -9999 -9999 -9999 -9999 -9999 -9999 -9999 -9999 -9999 -9999 -9999 -9999 -9999 1157.8 1157.1 1155.7 1152.4 1148 1143.9 1140.4 1137.2 1133.5 1129.5 1125.6 1121.2 1115 1109.7 1104.4 1099.4 1094.6 1089.4 1084.5 1078.9 1073.2 1066.6 1061 1055.8 1050.4 1044.4 1037.7 1033.4 1029.4 1025.2 1020.5 1015.7 1010.3 1003.7 996.56 989.12 981.4 973.75 966.89 961.43 957.07 953.5 951.02 949.05 947.19 944.57 940.7 938.54 939.86 941.88 943.65 944.85 945.32 944.95 943.91 942.54 940.28 936.2 931.08 926.08 920.64 915 909.54 905.51 903.22 900.87 897.75 894.54 891.35 888.23 884.78 880.9 875.79 868.57 860.7 852.96 847.58 848.33 852.88 856.81 860.54 864.96 870.59 876.75 882.2 887.34 892.75 898.5 905.51 913.8 920.82 927.72 935.69 943.89 950.51 955.67 961.45 969.56 979.28 988.23 995.55 1001.5 1006.9 1011.9 1016.1 1019.5 1022.9 1025.4 1026.8 1028.9 1032.7 1038.5 1046.6 1054.8 1061.3 1066.6 1071.1 1075.4 1080.6 1087.6 1094.9 1098.4 -9999 -9999 -9999 -9999 -9999 -9999 -9999 -9999 -9999 -9999 -9999 -9999 -9999 -9999 -9999 -9999 -9999 -9999 -9999 -9999 -9999 -9999 -9999 -9999 -9999 -9999 -9999 -9999 -9999 -9999 -9999 -9999 -9999 -9999 -9999 -9999 -9999 -9999 -9999 -9999 -9999 -9999 -9999 -9999 -9999 -9999 -9999
-9999 -9999 -9999 -9999 -9999 -9999 -9999 -9999 -9999 -9999 -9999 -9999 -9999 -9999 -9999 -9999 -9999 -9999 -9999 -9999 -9999 -9999 -9999 -9999 -9999 -9999 -9999 -9999 -9999 -9999 1158.2 1157.1 1154.7 1151.3 1147.6 1143.8 1139.9 1136.4 1132.6 1128.7 1124.9 1120.8 1115.7 1110.7 1105.5 1100.9 1096.4 1091.4 1086.2 1079.6 1073.2 1066.2 1061.1 1056 1050.3 1044.6 1038.3 1033.9 1028.8 1023.9 1018.4 1013.3 1008.2 1001.9 995.62 988.59 981.47 974.53 967.27 961.36 956.81 952.38 948.26 943.87 941.53 939.93 936.75 933.61 933.6 935.68 937.93 939.51 940.14 939.62 938.44 937.14 934.83 930.83 926.93 923.13 918.57 912.64 905.77 899.92 896.32 894.11 892.12 889.86 887.26 884.54 881.43 877.59 872.87 867.06 860.45 853.42 846.79 844.8 848.41 853.55 857.86 861.87 866.58 872.48 878.48 884.47 890.52 896.59 903.54 911.19 917.58 924.05 931.42 938.8 946.04 952.81 959.05 966.68 976.1 984.45 990.77 996.34 1001.5 1005.7 1008.8 1011.7 1014.9 1017.7 1021.1 1025.4 1030.3 1036.3 1044 1051.8 1058 1063.2 1068 1072.5 1078.5 1085.8 1092.2 -9999 -9999 -9999 -9999 -9999 -9999 -9999 -9999 -9999 -9999 -9999 -9999 -9999 -9999 -9999 -9999 -9999 -9999 -9999 -9999 -9999 -9999 -9999 -9999 -9999 -9999 -9999 -9999 -9999 -9999 -9999 -9999 -9999 -9999 -9999 -9999 -9999 -9999 -9999 -9999 -9999 -9999 -9999 -9999 -9999 -9999 -9999 -9999
-9999 -9999 -9999 -9999 -9999 -9999 -9999 -9999 -9999 -9999 -9999 -9999 -9999 -9999 -9999 -9999 -9999 -9999 -9999 -9999 -9999 -9999 -9999 -9999 -9999 -9999 -9999 -9999 -9999 -9999 1159.7 1158.6 1155 1151.1 1147.4 1143.4 1138.9 1134.9 1131 1127 1123.3 1119.4 1115 1110.6 1106.1 1101.9 1097.9 1093.1 1088.1 1082.3 1076 1069.5 1064.2 1059 1053.5 1047.8 1041.8 1036.1 1029.9 1024.5 1018.3 1012.7 1008 1002.2 996.77 990.11 983.76 977.88 970.74 964.03 958.54 953.68 949 942.54 938.52 935.82 932.6 928.94 927.32 928.93 931.44 933.36 934.22 934 933.12 931.47 928.59 924.88 921.65 918.85 915.38 910.15 903.83 897.18 891.18 887.22 885.08 883.76 882.36 880.38 877.59 873.96 869.7 864.83 859.27 853.24 846.86 842.59 843.72 849.16 854.57 859 863.5 869.16 875.87 882.58 888.84 894.85 901 907.22 913.29 919.42 926.25 934.27 942.86 950.49 956.97 964.06 972.81 980.18 985.18 989.6 993.76 997.02 999.68 1002.9 1007.2 1012.3 1018.2 1024.1 1029.2 1034.5 1041.2 1048.3 1054.3 1059.8 1065 1070.4 1077 1084.2 1089.4 -9999 -9999 -9999 -9999 -9999 -9999 -9999 -9999 -9999 -9999 -9999 -9999 -9999 -9999 -9999 -9999 -9999 -9999 -9999 -9999 -9999 -9999 -9999 -9999 -9999 -9999 -9999 -9999 -9999 -9999 -9999 -9999 -9999 -9999 -9999 -9999 -9999 -9999 -9999 -9999 -9999 -9999 -9999 -9999 -9999 -9999 -9999 -9999
-9999 -9999 -9999 -9999 -9999 -9999 -9999 -9999 -9999 -9999 -9999 -9999 -9999 -9999 -9999 -9999 -9999 -9999 -9999 -9999 -9999 -9999 -9999 -9999 -9999 -9999 -9999 -9999 -9999 -9999 1160.2 1158.8 1155 1150.9 1147.1 1142.5 1137.4 1132.8 1128.6 1124.6 1120.8 1117 1113.2 1109.5 1105.5 1101.8 1097.9 1093 1088 1083.1 1077.9 1072.6 1067.3 1062.2 1057.2 1052 1046.3 1039.5 1033.2 1027.7 1021.7 1015.9 1011 1006.3 1001.6 995.63 989.61 984.36 978.71 971.29 963.59 958.09 953.53 947.1 940.01 932.99 928.49 925.38 922.6 922.69 924.64 926.57 927.56 927.73 927.54 926.31 923.72 920.29 916.7 913.91 910.69 906.5 901.41 895.67 889.2 882.5 877.82 876.29 876.05 874.96 872.7 869.81 866.37 862.11 857.45 852.4 847.02 842.44 840.9 844.43 850.53 856.14 861.26 867.12 874.43 881.01 886.56 891.84 897.19 903.42 910.19 916.73 924.17 933.75 942.76 949.59 955.59 961.66 969.02 975.8 979.88 982.47 984.89 987.66 991 995.39 1002.2 1010.8 1017.6 1022.8 1027.7 1032.4 1038.1 1044.3 1050.2 1056.3 1062.5 1069 1075.9 1082.9 1087.5 -9999 -9999 -9999 -9999 -9999 -9999 -9999 -9999 -9999 -9999 -9999 -9999 -9999 -9999 -9999 -9999 -9999 -9999 -9999 -9999 -9999 -9999 -9999 -9999 -9999 -9999 -9999 -9999 -9999 -9999 -9999 -9999 -9999 -9999 -9999 -9999 -9999 -9999 -9999 -9999 -9999 -9999 -9999 -9999 -9999 -9999 -9999 -9999
-9999 -9999 -9999 -9999 -9999 -9999 -9999 -9999 -9999 -9999 -9999 -9999 -9999 -9999 -9999 -9999 -9999 -9999 -9999 -9999 -9999 -9999 -9999 -9999 -9999 -9999 -9999 -9999 -9999 -9999 1160.8 1158.5 1154.8 1150.9 1146.7 1141.7 1136 1130.6 1125.7 1121.4 1117.6 1114 1110.7 1107.6 1104.3 1101 1096.9 1091.3 1086.3 1082.1 1078 1073.5 1068.4 1063.3 1058.6 1054.2 1049.6 1043 1036.6 1030.9 1025.3 1019.8 1014.7 1010.1 1005.8 1001.2 995.24 989.73 984.53 977.94 969.97 962.44 956.96 951.54 944.08 935.14 927.46 921.59 917.45 916.64 918.74 920.92 921.99 922.32 922.13 921.1 919.15 916.12 911.83 907.63 904.56 901.67 898.07 893.81 888.12 880.96 874.26 869.29 867.73 867.38 866.38 864.76 862.4 859.15 855.42 851.25 846.74 842.53 840.01 841.31 846.33 852.88 858.83 864.92 871.91 878.4 883.86 888.37 893.65 901.98 910.58 918.57 926.9 935.57 942.86 948.8 954.12 958.78 964.06 970.19 974 975.94 977.81 980.55 985.08 992.08 1001.2 1009.8 1015.6 1020.3 1025.1 1029.7 1035 1040.7 1046.6 1053.6 1060.8 1067.8 1074.5 1081.3 1085.9 -9999 -9999 -9999 -9999 -9999 -9999 -9999 -9999 -9999 -9999 -9999 -9999 -9999 -9999 -9999 -9999 -9999 -9999 -9999 -9999 -9999 -9999 -9999 -9999 -9999 -9999 -9999 -9999 -9999 -9999 -9999 -9999 -9999 -9999 -9999 -9999 -9999 -9999 -9999 -9999 -9999 -9999 -9999 -9999 -9999 -9999 -9999 -9999
-9999 -9999 -9999 -9999 -9999 -9999 -9999 -9999 -9999 -9999 -9999 -9999 -9999 -9999 -9999 -9999 -9999 -9999 -9999 -9999 -9999 -9999 -9999 -9999 -9999 -9999 -9999 -9999 -9999 -9999 1160.9 1158.3 1154.5 1150.4 1146.2 1141.3 1136.1 1130 1123.8 1118.6 1114.3 1111 1108.7 1106.2 1102.8 1099.2 1094.3 1088.4 1084.1 1080.3 1076.5 1072.6 1068 1063.3 1058.9 1054.9 1050.7 1045 1039 1033.4 1027.8 1022.4 1017.3 1012.5 1008.1 1003.4 998.19 992.8 987.28 981.28 973.79 965.34 958.54 952.6 946.06 938.59 930.73 923.3 917.21 913.87 914.1 915.77 916.81 917.07 916.89 916.25 914.62 911.3 906.74 902.43 899.79 897.83 895.31 891.6 886.77 880.35 872.28 865.66 862.44 860.59 859.42 858.77 857.62 855.67 852.98 849.72 846.2 842.69 839.69 839.46 843.35 849.66 855.92 862.32 868.69 875.33 882.75 889.77 896.07 903.87 912.5 920.11 927.28 934.69 941.17 946.5 951.37 955.74 959.9 963.8 966.52 968.31 970.68 975.09 982.01 990.8 999.74 1006.5 1011.5 1016.4 1021.2 1026.4 1032.3 1038.6 1045.6 1052.7 1059.7 1066.4 1072.6 1078.7 -9999 -9999 -9999 -9999 -9999 -9999 -9999 -9999 -9999 -9999 -9999 -9999 -9999 -9999 -9999 -9999 -9999 -9999 -9999 -9999 -9999 -9999 -9999 -9999 -9999 -9999 -9999 -9999 -9999 -9999 -9999 -9999 -9999 -9999 -9999 -9999 -9999 -9999 -9999 -9999 -9999 -9999 -9999 -9999 -9999 -9999 -9999 -9999 -9999
-9999 -9999 -9999 -9999 -9999 -9999 -9999 -9999 -9999 -9999 -9999 -9999 -9999 -9999 -9999 -9999 -9999 -9999 -9999 -9999 -9999 -9999 -9999 -9999 -9999 -9999 -9999 -9999 -9999 1161.9 1160.8 1157.9 1154.1 1150 1145.7 1141.1 1136.3 1130 1123 1116.6 1111.3 1108.9 1107.4 1105.3 1102.1 1098.4 1093.3 1087.5 1083.6 1079.5 1075 1071.3 1067.2 1062.7 1058.7 1055 1050.9 1046.1 1041 1035.7 1030 1024.3 1019.2 1014.5 1009.8 1004.8 999.66 994.1 988.35 982.37 975 966.51 959.15 952.91 946.78 940.13 932.7 925.24 918.87 913.77 910.5 909.58 910.13 910.8 910.97 910.46 908.92 906.01 901.9 898.07 895.83 894.6 892.65 889.11 884.66 878.92 871.57 864.79 859.65 856 854.33 854.03 853.63 852.57 850.64 848 845.29 842.25 838.88 838.43 842.45 848.75 855.52 862.78 870.18 877.56 884.93 891.83 898.52 906.06 913.77 920.77 927.27 933.41 938.93 943.8 948.15 952.01 955.27 957.9 960.14 962.18 965.8 972.4 980.31 987.68 995.17 1001.6 1007.1 1012.5 1018.4 1024.6 1031 1037.8 1044.9 1051.9 1058.8 1065.1 1070.8 1075.8 -9999 -9999 -9999 -9999 -9999 -9999 -9999 -9999 -9999 -9999 -9999 -9999 -9999 -9999 -9999 -9999 -9999 -9999 -9999 -9999 -9999 -9999 -9999 -9999 -9999 -9999 -9999 -9999 -9999 -9999 -9999 -9999 -9999 -9999 -9999 -9999 -9999 -9999 -9999 -9999 -9999 -9999 -9999 -9999 -9999 -9999 -9999 -9999 -9999
-9999 -9999 -9999 -9999 -9999 -9999 -9999 -9999 -9999 -9999 -9999 -9999 -9999 -9999 -9999 -9999 -9999 -9999 -9999 -9999 -9999 -9999 -9999 -9999 -9999 -9999 -9999 -9999 -9999 1162.4 1160.7 1157.6 1153.8 1149.6 1145.2 1140.7 1135.9 1129.7 1122.5 1115.4 1110.1 1108.3 1107.7 1106.4 1103.6 1100 1095.5 1090.2 1085.9 1081.1 1075.9 1071.9 1067.5 1062.8 1059 1055.3 1050.9 1046.8 1042.7 1038 1032.1 1026.1 1020.8 1015.9 1010.8 1005.4 999.98 994.24 988.41 982.41 974.94 966.3 958.89 952.74 947.14 941.16 934.39 927.63 921.43 915.29 909.55 905.44 904.22 904.65 904.93 904.45 902.87 900.17 896.47 893.01 891.49 891.11 889.43 885.97 881.88 876.9 870.97 864.88 858.88 854.46 852.25 851.33 850.71 849.99 848.66 846.72 844.47 841.27 837.91 838.29 843.12 849.98 857.32 865.09 873.3 880.63 887.2 893.53 899.82 906.65 913.59 920.05 926.2 931.48 935.99 940.26 943.99 947.21 949.99 952.43 955.34 958.91 963.78 971.06 979.04 985.06 991.19 997.64 1004.1 1010.5 1017.1 1023.6 1029.9 1036.4 1043.2 1050.3 1057 1062.9 1068.2 1072.8 -9999 -9999 -9999 -9999 -9999 -9999 -9999 -9999 -9999 -9999 -9999 -9999 -9999 -9999 -9999 -9999 -9999 -9999 -9999 -9999 -9999 -9999 -9999 -9999 -9999 -9999 -9999 -9999 -9999 -9999 -9999 -9999 -9999 -9999 -9999 -9999 -9999 -9999 -9999 -9999 -9999 -9999 -9999 -9999 -9999 -9999 -9999 -9999 -9999
-9999 -9999 -9999 -9999 -9999 -9999 -9999 -9999 -9999 -9999 -9999 -9999 -9999 -9999 -9999 -9999 -9999 -9999 -9999 -9999 -9999 -9999 -9999 -9999 -9999 -9999 -9999 -9999 1164.4 1163 1160.7 1157.5 1153.5 1149.2 1144.7 1140 1135 1128.8 1121.6 1114.6 1109.9 1108.8 1109.1 1108.8 1106.4 1102.8 1099 1094.7 1089.8 1084.5 1078.9 1074.2 1069.4 1064.4 1060.1 1056.2 1051.9 1048.1 1044.3 1039.9 1034.3 1027.9 1022.1 1016.7 1011.2 1005.4 999.59 993.72 987.85 981.8 974.18 965.5 958.41 952.56 947.75 942.64 937 931.25 924.97 918.26 911.69 905.87 902.57 901.57 900.82 899.12 896.6 893.94 890.72 887.6 886.36 886.12 884.76 882.05 878.6 874.3 869.64 864.43 858.62 854.22 851.61 849.86 848.59 847.77 846.97 845.65 843.57 839.69 836.83 839.01 844.86 852.35 860.19 868.1 876.14 882.75 888.4 893.97 899.43 905.38 911.71 917.71 923.39 928.28 932.33 935.91 938.94 941.68 944.77 948.93 953.33 957.89 963.23 970.26 977.85 983.39 989.03 995.6 1002.5 1009.3 1015.8 1022.1 1028.2 1034 1040.2 1047.4 1054.1 1059.9 1065.2 1069.6 -9999 -9999 -9999 -9999 -9999 -9999 -9999 -9999 -9999 -9999 -9999 -9999 -9999 -9999 -9999 -9999 -9999 -9999 -9999 -9999 -9999 -9999 -9999 -9999 -9999 -9999 -9999 -9999 -9999 -9999 -9999 -9999 -9999 -9999 -9999 -9999 -9999 -9999 -9999 -9999 -9999 -9999 -9999 -9999 -9999 -9999 -9999 -9999 -9999
-9999 -9999 -9999 -9999 -9999 -9999 -9999 -9999 -9999 -9999 -9999 -9999 -9999 -9999 -9999 -9999 -9999 -9999 -9999 -9999 -9999 -9999 -9999 -9999 -9999 -9999 -9999 -9999 1165.9 1163.9 1161 1157.4 1153.2 1148.7 1143.9 1139 1133.6 1127.3 1120.3 1113.8 1109.9 1109.7 1110.7 1110.7 1108.5 1104.7 1101.3 1098.2 1093.6 1088 1082.2 1077.1 1072.5 1067.2 1062 1057.8 1053.9 1050.2 1046.2 1041.6 1036.1 1029.8 1023.3 1017 1011 1004.8 998.84 992.78 986.9 980.78 973.14 965.04 958.72 953.19 949.34 945.37 941.02 936 929.46 922.6 916.22 910.72 906.21 903.15 900.4 896.54 892.52 889.46 885.91 882.63 880.71 879.66 878.62 877.01 874.32 870.8 867.1 862.78 857.87 853.82 850.8 848.41 846.73 845.92 845.51 844.42 841.92 837.53 836.05 840.43 847.04 854.88 863.04 870.65 877.6 883.32 888.29 893.05 897.55 902.53 908.09 913.59 918.48 923.07 927.34 930.67 933.58 936.99 941.37 947.87 953.42 957.81 962.75 969.3 976.51 982.28 988.14 994.79 1001.5 1007.7 1013.7 1019.8 1025.7 1030.9 1036.5 1043.6 1050.4 1056.6 1062.3 1066.5 -9999 -9999 -9999 -9999 -9999 -9999 -9999 -9999 -9999 -9999 -9999 -9999 -9999 -9999 -9999 -9999 -9999 -9999 -9999 -9999 -9999 -9999 -9999 -9999 -9999 -9999 -9999 -9999 -9999 -9999 -9999 -9999 -9999 -9999 -9999 -9999 -9999 -9999 -9999 -9999 -9999 -9999 -9999 -9999 -9999 -9999 -9999 -9999 -9999
-9999 -9999 -9999 -9999 -9999 -9999 -9999 -9999 -9999 -9999 -9999 -9999 -9999 -9999 -9999 -9999 -9999 -9999 -9999 -9999 -9999 -9999 -9999 -9999 -9999 -9999 -9999 1169 1167.6 1164.8 1161.3 1157.3 1152.9 1148.1 1143.1 1137.7 1131.7 1125.1 1118.6 1112.9 1109.7 1109.7 1110.4 1110.4 1108.8 1105.4 1102.1 1099.8 1096.2 1090.4 1084.4 1079.4 1075.3 1070 1064.1 1059.4 1055.6 1051.9 1047.8 1043 1037.6 1031.5 1024.4 1017.3 1010.3 1003.8 997.9 991.61 985.83 979.97 972.74 965.93 960.86 955.76 952.69 949.82 945.77 940.38 933.96 927.56 921.59 916.84 912.35 907.97 903.75 899.2 894.79 890.23 884.12 879.14 875.62 873.36 871.95 870.38 868.25 865.94 863.39 860.21 856.7 853.15 849.41 846.22 844.63 844.41 844.15 842.63 838.72 835.02 836.33 842.22 848.95 856.81 865.03 871.71 877.35 882.36 886.95 891.18 894.88 898.67 903.04 907.72 911.6 915.58 920.32 924.6 929.1 934.87 941.08 948.14 953.53 957.46 961.78 967.79 974.89 981.07 987.19 993.68 1000 1005.6 1010.9 1016.7 1022.4 1027.5 1032.9 1039.6 1046.4 1053.1 1059.6 1064.5 -9999 -9999 -9999 -9999 -9999 -9999 -9999 -9999 -9999 -9999 -9999 -9999 -9999 -9999 -9999 -9999 -9999 -9999 -9999 -9999 -9999 -9999 -9999 -9999 -9999 -9999 -9999 -9999 -9999 -9999 -9999 -9999 -9999 -9999 -9999 -9999 -9999 -9999 -9999 -9999 -9999 -9999 -9999 -9999 -9999 -9999 -9999 -9999 -9999
-9999 -9999 -9999 -9999 -9999 -9999 -9999 -9999 -9999 -9999 -9999 -9999 -9999 -9999 -9999 -9999 -9999 -9999 -9999 -9999 -9999 -9999 -9999 -9999 -9999 -9999 -9999 1170.7 1169.2 1165.9 1161.6 1157.2 1152.5 1147.4 1141.9 1136 1129.4 1122.8 1116.8 1112 1108.9 1108.2 1109.1 1109.3 1107.8 1104.8 1102.1 1100.4 1097.4 1091.5 1085.2 1080.2 1076 1071 1065.4 1060.6 1056.6 1052.9 1048.9 1044 1038.5 1032.3 1025.3 1018.1 1010.8 1003.8 998.13 991.88 986.64 981.37 975.31 970.31 965.58 961.15 957.38 953.83 949.05 943.03 937.06 931.16 925.63 921.55 918.06 913.61 908.75 904.05 899.44 894.52 888.63 881.97 874.28 868.33 864.86 862.77 861.58 860.56 859.23 857.54 855.09 851.78 847.72 844.03 842.15 841.91 841.55 839.11 833.93 833.1 837.95 843.78 850.01 857.28 864.87 870.68 875.68 880.28 884.29 888.07 891.56 894.68 897.95 900.82 903.47 907.11 912.18 919.24 927.61 935.02 941.69 947.78 952.72 956.68 960.67 966.05 972.82 979.45 985.8 991.79 997.49 1002.5 1007.5 1012.9 1018.2 1023.7 1029.3 1035.7 1042.4 1049.2 1056.9 1063.4 -9999 -9999 -9999 -9999 -9999 -9999 -9999 -9999 -9999 -9999 -9999 -9999 -9999 -9999 -9999 -9999 -9999 -9999 -9999 -9999 -9999 -9999 -9999 -9999 -9999 -9999 -9999 -9999 -9999 -9999 -9999 -9999 -9999 -9999 -9999 -9999 -9999 -9999 -9999 -9999 -9999 -9999 -9999 -9999 -9999 -9999 -9999 -9999 -9999
-9999 -9999 -9999 -9999 -9999 -9999 -9999 -9999 -9999 -9999 -9999 -9999 -9999 -9999 -9999 -9999 -9999 -9999 -9999 -9999 -9999 -9999 -9999 -9999 -9999 -9999 -9999 1172.4 1170.6 1166.8 1161.8 1157 1152 1146.6 1140.4 1133.7 1126.6 1120.2 1114.8 1110.7 1108 1106.6 1106.8 1106.8 1105.6 1103.5 1101.6 1100.2 1097.4 1091.6 1085 1079.7 1075.7 1071 1065.8 1061 1057 1053.2 1049.3 1044.5 1039 1032.7 1025.8 1019.5 1013.4 1007 1001.4 995.61 990.91 986.46 981.13 975.68 970.05 964.72 960.09 955.87 950.96 945.43 940.43 935.24 929.64 925.54 922.41 918.59 913.91 908.9 903.76 898.35 892.58 886.11 878.63 870.75 863.25 858.01 856.08 855.88 855.62 854.77 852.94 849.96 846.46 842.97 840.12 838.45 836.76 833.95 831.92 833.57 838.34 844.13 850.37 856.82 862.79 867.51 871.73 876.08 879.87 882.95 885.8 888.62 891.54 894.71 898.95 905.07 912.96 921.29 928.69 934.92 940.92 946.25 950.96 954.99 958.92 963.8 969.99 976.76 983.11 989.21 994.49 998.91 1003.5 1008.7 1014 1019.4 1025.5 1032.6 1040.1 1047.9 1055.6 1060.9 -9999 -9999 -9999 -9999 -9999 -9999 -9999 -9999 -9999 -9999 -9999 -9999 -9999 -9999 -9999 -9999 -9999 -9999 -9999 -9999 -9999 -9999 -9999 -9999 -9999 -9999 -9999 -9999 -9999 -9999 -9999 -9999 -9999 -9999 -9999 -9999 -9999 -9999 -9999 -9999 -9999 -9999 -9999 -9999 -9999 -9999 -9999 -9999 -9999
-9999 -9999 -9999 -9999 -9999 -9999 -9999 -9999 -9999 -9999 -9999 -9999 -9999 -9999 -9999 -9999 -9999 -9999 -9999 -9999 -9999 -9999 -9999 -9999 -9999 -9999 -9999 1173.7 1171.3 1167 1161.9 1156.8 1151.5 1145.6 1138.6 1130.5 1123.2 1117.3 1112.6 1109.3 1107.1 1105.4 1104.7 1104 1103 1101.8 1100.7 1099.4 1096.1 1090.1 1083.7 1078.6 1074.5 1070.2 1065.4 1060.9 1056.9 1053.2 1049.3 1044.6 1039.3 1033 1026 1020.4 1015.4 1010.1 1004.6 999.36 994.69 990.53 985.68 979.64 973.4 967.32 962.12 957.65 952.99 948.69 945.14 940.84 935.69 930.98 927.19 923.21 918.38 912.93 907.09 901.03 894.9 888.52 881.57 873.78 866 859.76 856.23 854.89 853.85 852.44 850.71 848.37 845.58 842.36 838.69 835.39 832.87 830.65 830.53 833.34 838.04 843.51 849.42 855.19 859.73 863.08 865.72 868.87 872.1 874.66 877.08 880.48 884.98 890.43 898.29 907.61 915.81 922.7 928.74 934 939.34 944.07 948.56 952.78 956.72 960.98 966.24 972.56 979.1 985.75 991.45 996.12 1000.5 1005.5 1011.4 1017.1 1023.8 1031.5 1039.7 1048.1 1054.8 -9999 -9999 -9999 -9999 -9999 -9999 -9999 -9999 -9999 -9999 -9999 -9999 -9999 -9999 -9999 -9999 -9999 -9999 -9999 -9999 -9999 -9999 -9999 -9999 -9999 -9999 -9999 -9999 -9999 -9999 -9999 -9999 -9999 -9999 -9999 -9999 -9999 -9999 -9999 -9999 -9999 -9999 -9999 -9999 -9999 -9999 -9999 -9999 -9999 -9999
-9999 -9999 -9999 -9999 -9999 -9999 -9999 -9999 -9999 -9999 -9999 -9999 -9999 -9999 -9999 -9999 -9999 -9999 -9999 -9999 -9999 -9999 -9999 -9999 -9999 -9999 1175.4 1174.1 1171.3 1166.9 1161.7 1156.6 1150.9 1144.4 1136.4 1127.4 1120 1114.5 1110.5 1108 1106.1 1104.3 1103 1101.8 1100.6 1099.6 1098.8 1097 1092.9 1087 1081.6 1077 1072.9 1068.8 1064.5 1060.4 1056.6 1052.9 1049.1 1044.5 1039.2 1032.8 1026.1 1020.7 1016.2 1011.6 1006.4 1001.3 996.73 992.51 987.85 982.03 976 970.57 965.67 961.42 957.04 953.15 950.11 946.39 941.98 937.16 932.6 927.82 922.38 916.31 909.65 902.76 896.12 889.51 882.71 875.85 869.08 863.14 858.9 856.09 853.8 851.39 848.94 846.84 844.65 841.57 837.48 833.36 830.35 828.74 829.78 832.93 837.09 841.72 846.73 851.68 855.25 857.44 858.81 860.52 862.53 864.84 868.3 874.04 881.63 889.64 899.11 909.44 917.06 922.23 927.22 931.97 936.78 941.23 945.51 949.83 953.92 957.94 962.56 968.33 975.17 982.27 988.58 994.42 999.58 1005.2 1011.8 1018 1024.9 1032.4 1040.4 1048.2 1053.9 -9999 -9999 -9999 -9999 -9999 -9999 -9999 -9999 -9999 -9999 -9999 -9999 -9999 -9999 -9999 -9999 -9999 -9999 -9999 -9999 -9999 -9999 -9999 -9999 -9999 -9999 -9999 -9999 -9999 -9999 -9999 -9999 -9999 -9999 -9999 -9999 -9999 -9999 -9999 -9999 -9999 -9999 -9999 -9999 -9999 -9999 -9999 -9999 -9999 -9999
-9999 -9999 -9999 -9999 -9999 -9999 -9999 -9999 -9999 -9999 -9999 -9999 -9999 -9999 -9999 -9999 -9999 -9999 -9999 -9999 -9999 -9999 -9999 -9999 -9999 1176.8 1175.7 1173.8 1170.7 1166.4 1161.4 1156.1 1150.1 1143 1134.5 1125.6 1118.3 1112.7 1109 1106.9 1104.9 1102.9 1101.6 1100.2 1098.5 1096.8 1095 1092.4 1088.2 1083.4 1079 1075 1071 1067.1 1063.3 1059.5 1055.8 1052.3 1048.7 1044.1 1038.7 1032.4 1025.9 1020.7 1016.2 1011.7 1006.8 1001.8 997.52 993.21 988.57 983.82 979.05 975.26 971.4 967.42 962.79 958.23 954.67 951.11 947.17 942.52 937.58 932.08 925.99 919.13 911.57 904.16 897.29 890.39 883.71 877.83 871.91 866.48 862.23 858.17 854.62 851.21 847.45 845.01 843.2 840.31 836.38 832.38 829.17 827.64 829.16 832.34 835.68 839.15 842.81 846.4 849.12 850.43 851.17 852.62 854.82 858.3 863.99 872.1 881.53 890.36 898.95 907.94 915.1 920.02 924.57 928.93 933.24 937.61 941.76 946.05 950.54 955.07 959.88 965.75 973.18 980.52 987.18 994.22 1000.9 1007.3 1014.2 1020.4 1027 1034 1041.2 1048 1052.7 -9999 -9999 -9999 -9999 -9999 -9999 -9999 -9999 -9999 -9999 -9999 -9999 -9999 -9999 -9999 -9999 -9999 -9999 -9999 -9999 -9999 -9999 -9999 -9999 -9999 -9999 -9999 -9999 -9999 -9999 -9999 -9999 -9999 -9999 -9999 -9999 -9999 -9999 -9999 -9999 -9999 -9999 -9999 -9999 -9999 -9999 -9999 -9999 -9999 -9999
-9999 -9999 -9999 -9999 -9999 -9999 -9999 -9999 -9999 -9999 -9999 -9999 -9999 -9999 -9999 -9999 -9999 -9999 -9999 -9999 -9999 -9999 -9999 -9999 1178.9 1177.5 1175.4 1172.8 1169.6 1165.5 1160.7 1155.4 1149.1 1141.9 1134 1126.2 1118.7 1112.4 1108.6 1105.9 1103.2 1101.2 1100.2 1098.9 1096.3 1092.6 1089 1086.2 1083.3 1080.2 1076.7 1072.9 1069.1 1065.3 1061.7 1058.2 1054.8 1051.4 1047.7 1043.2 1037.9 1031.7 1025.5 1020.4 1015.8 1011.4 1007.1 1002.3 998.41 994.33 989.86 986.34 983.35 980.7 977.77 973.83 968.52 963.05 958.76 954.99 950.82 945.89 940.83 935.19 928.84 921.32 913.24 906.18 899.58 892.68 886.34 881.1 875.65 870.37 865.7 860.46 855.47 851.05 846.1 843.04 841.25 838.63 835.27 831.88 828.76 826.84 828.01 831.11 833.93 836.3 838.57 840.62 842.48 843.26 844.12 847.11 851.91 857.97 865.38 873.72 882.16 889.59 896.32 903.16 910.08 916.07 920.85 925.01 929.06 933.47 937.81 942.28 947.48 953.16 958.88 965.68 973.8 981.16 987.9 995.49 1003.2 1010.3 1016.7 1022.4 1028.7 1035.4 1041.9 1047.7 1051.3 -9999 -9999 -9999 -9999 -9999 -9999 -9999 -9999 -9999 -9999 -9999 -9999 -9999 -9999 -9999 -9999 -9999 -9999 -9999 -9999 -9999 -9999 -9999 -9999 -9999 -9999 -9999 -9999 -9999 -9999 -9999 -9999 -9999 -9999 -9999 -9999 -9999 -9999 -9999 -9999 -9999 -9999 -9999 -9999 -9999 -9999 -9999 -9999 -9999 -9999
-9999 -9999 -9999 -9999 -9999 -9999 -9999 -9999 -9999 -9999 -9999 -9999 -9999 -9999 -9999 -9999 -9999 -9999 -9999 -9999 -9999 -9999 -9999 1181.1 1179.9 1177.7 1174.7 1171.5 1168.1 1164.3 1159.8 1154.3 1148 1141.6 1135 1127.6 1119.8 1113.1 1108.5 1104.9 1101.2 1098.9 1097.8 1096.1 1092.8 1088.1 1083.7 1081.3 1079.3 1077 1074.2 1070.7 1067 1063.3 1060 1056.7 1053.5 1050.2 1046.3 1041.9 1036.8 1030.5 1024.6 1019.9 1015.5 1011.6 1008 1003.7 1000.4 997.21 993.42 990.22 987.53 984.59 981.38 977.85 973.08 967.46 962.59 958.06 952.99 947.63 942.26 936.53 930.11 922.73 915.61 909.84 903.89 897.29 890.8 885.31 880.23 874.71 869.02 862.81 856.21 850.8 845.67 842.05 839.59 836.81 833.77 830.92 828.04 825.86 826.14 828.86 831.69 833.28 834.7 836.41 838.12 839.22 841.17 846.19 853.57 861.01 867.46 873.66 880.2 885.89 891.33 897.09 903.45 909.76 915.28 920.3 925.04 929.88 935.08 940.38 946.48 953.2 959.84 967.52 975.73 982.95 989.79 997.39 1005 1011.7 1017.5 1023.3 1029.8 1036.4 1042.2 1047.1 -9999 -9999 -9999 -9999 -9999 -9999 -9999 -9999 -9999 -9999 -9999 -9999 -9999 -9999 -9999 -9999 -9999 -9999 -9999 -9999 -9999 -9999 -9999 -9999 -9999 -9999 -9999 -9999 -9999 -9999 -9999 -9999 -9999 -9999 -9999 -9999 -9999 -9999 -9999 -9999 -9999 -9999 -9999 -9999 -9999 -9999 -9999 -9999 -9999 -9999 -9999
-9999 -9999 -9999 -9999 -9999 -9999 -9999 -9999 -9999 -9999 -9999 -9999 -9999 -9999 -9999 -9999 -9999 -9999 -9999 -9999 -9999 -9999 1183.4 1182.3 1180.4 1177.4 1173.8 1170.3 1166.9 1163.2 1158.8 1153.1 1146.6 1140.4 1134.5 1127.6 1119.9 1113.1 1107.9 1103.9 1100 1096.3 1093 1090.5 1088.3 1085 1080.7 1077.4 1075.6 1073.7 1071.2 1068.1 1064.8 1061.4 1058.1 1055 1052 1048.6 1044.7 1040.4 1035.1 1028.6 1023.1 1019.4 1015.9 1012.9 1009.7 1006.1 1003 1000.2 997.05 993.51 990.07 986.88 983.38 979.68 975.74 971.08 966 960.57 954.31 948.19 942.36 936.51 929.97 923.64 918.69 914.19 908.35 901.38 894.29 888.29 882.62 876.57 870.58 863.88 856.7 851.28 846.87 842.85 839.27 835.58 832.05 829.52 827.15 824.94 824.17 826.07 828.88 830.41 831.57 833.44 836.1 838.77 841.92 847.07 853.59 859.32 864.34 870.22 875.83 880.98 886.2 891.9 897.72 903.31 909.51 916.55 923.15 929.27 935.4 941.36 947.67 954.52 961.49 969.01 976.74 984 990.75 997.66 1004.6 1011 1017.1 1023.7 1030.9 1037.3 1042.5 1046.3 -9999 -9999 -9999 -9999 -9999 -9999 -9999 -9999 -9999 -9999 -9999 -9999 -9999 -9999 -9999 -9999 -9999 -9999 -9999 -9999 -9999 -9999 -9999 -9999 -9999 -9999 -9999 -9999 -9999 -9999 -9999 -9999 -9999 -9999 -9999 -9999 -9999 -9999 -9999 -9999 -9999 -9999 -9999 -9999 -9999 -9999 -9999 -9999 -9999 -9999 -9999
-9999 -9999 -9999 -9999 -9999 -9999 -9999 -9999 -9999 -9999 -9999 -9999 -9999 -9999 -9999 -9999 -9999 -9999 -9999 -9999 -9999 1185 1184.7 1183.4 1180.7 1176.8 1172.8 1169.2 1165.7 1162.1 1157.6 1151.6 1144.8 1137.8 1131.6 1125.3 1118.7 1112.6 1107.4 1103.1 1099 1093.9 1089 1086.1 1084.6 1082.1 1078.2 1074.6 1072.1 1069.6 1067.2 1064.9 1062.2 1059.2 1056.1 1053.3 1050.3 1046.8 1043 1038.6 1032.9 1026.5 1021.8 1018.8 1016.1 1013.6 1010.9 1007.6 1004.3 1001.5 998.86 995.46 991.64 988.14 984.7 981.08 977.41 973.3 968.38 962.62 955.86 949.1 943.03 937.51 931.34 925.63 921.34 916.96 910.71 902.82 895.65 889.58 883.57 877.79 872.16 865.87 859.54 853.88 848.58 843.66 839.53 835.44 831.45 828.71 826.33 823.94 822.41 823.52 826.02 827.83 829.75 832.36 835.36 838.43 841.56 845.49 851.1 856.67 861.61 867.65 873.02 878.73 884.28 890.38 896.99 902.94 909 915.72 922.2 928.71 935.11 941.23 947.74 954.75 961.87 969.37 976.99 983.94 990.29 996.65 1003.1 1009.4 1016.3 1024.4 1032.2 1038.2 1042.4 1045.1 -9999 -9999 -9999 -9999 -9999 -9999 -9999 -9999 -9999 -9999 -9999 -9999 -9999 -9999 -9999 -9999 -9999 -9999 -9999 -9999 -9999 -9999 -9999 -9999 -9999 -9999 -9999 -9999 -9999 -9999 -9999 -9999 -9999 -9999 -9999 -9999 -9999 -9999 -9999 -9999 -9999 -9999 -9999 -9999 -9999 -9999 -9999 -9999 -9999 -9999 -9999
-9999 -9999 -9999 -9999 -9999 -9999 -9999 -9999 -9999 -9999 -9999 -9999 -9999 -9999 -9999 -9999 -9999 -9999 -9999 -9999 -9999 1185.7 1185.7 1184.4 1180.7 1175.7 1171.3 1167.7 1164.2 1160.7 1156 1149.8 1143.1 1135.5 1128 1121.8 1116.6 1111.5 1106.5 1102 1097.5 1091.8 1086.7 1083.7 1082 1079.8 1076.7 1073 1069.2 1065.7 1063.4 1061.5 1059 1056.2 1053.7 1051.2 1048.4 1044.9 1041.1 1036.4 1030.2 1024.4 1020.8 1018.2 1015.8 1013.6 1011 1007.9 1004.6 1001.8 999.35 996.15 992.3 988.77 985.48 982.02 978.45 974.64 969.83 963.9 957.26 950.68 944.9 939.73 934.13 928.61 923.65 918.42 911.42 902.76 895.68 889.96 884.43 879.34 874.22 868.57 862.74 856.22 849.97 844.72 840.46 836.17 831.77 828.52 825.77 822.94 820.74 820.98 823.05 825.47 828.25 831.09 834.03 837.68 841.14 844.75 850.5 856.67 861.77 867.95 873.88 880.13 886.44 892.89 899.38 905.35 911.03 916.66 922 927.55 934.02 940.59 947.32 954.33 961.12 968.34 976.01 982.74 988.81 994.89 1001 1007.8 1016.1 1025.6 1033.5 1038.9 1042.1 1043.8 -9999 -9999 -9999 -9999 -9999 -9999 -9999 -9999 -9999 -9999 -9999 -9999 -9999 -9999 -9999 -9999 -9999 -9999 -9999 -9999 -9999 -9999 -9999 -9999 -9999 -9999 -9999 -9999 -9999 -9999 -9999 -9999 -9999 -9999 -9999 -9999 -9999 -9999 -9999 -9999 -9999 -9999 -9999 -9999 -9999 -9999 -9999 -9999 -9999 -9999 -9999
-9999 -9999 -9999 -9999 -9999 -9999 -9999 -9999 -9999 -9999 -9999 -9999 -9999 -9999 -9999 -9999 -9999 -9999 -9999 -9999 -9999 1186.3 1186.4 1185 1180.3 1174.2 1169.5 1165.7 1162.2 1158.5 1153.7 1147.8 1141.6 1134.3 1125.6 1118.9 1114.1 1109.5 1104.7 1100 1095.3 1089.8 1085.3 1082.2 1080 1078 1075.6 1071.8 1067.1 1063.1 1060.5 1058.3 1055.4 1052.8 1050.8 1048.7 1045.9 1042.7 1038.8 1033.5 1027.2 1022.5 1019.7 1017.4 1015.2 1013 1010.4 1007.4 1004.2 1001.5 999.02 995.9 992.24 988.92 985.77 982.46 979.01 975.4 970.61 964.5 958.25 952.41 947.07 941.89 936.58 930.95 925.1 919.02 911.39 902.12 895.28 890.29 885.41 880.64 875.67 870.23 864.15 856.93 850.44 845.51 841.49 837.13 832.4 828.64 825.44 822.15 819.34 818.58 820.08 823.12 826.61 829.6 832.67 837.06 841.36 845.97 852.34 858.79 864.16 870.33 876.74 883.03 889.64 896.34 902.73 908.8 914.32 919.07 923.3 927.91 934.45 941.17 947.42 953.81 960.02 966.64 974.1 980.76 986.85 992.92 998.88 1006.4 1016.6 1027 1034.7 1039.6 1042.1 1043 -9999 -9999 -9999 -9999 -9999 -9999 -9999 -9999 -9999 -9999 -9999 -9999 -9999 -9999 -9999 -9999 -9999 -9999 -9999 -9999 -9999 -9999 -9999 -9999 -9999 -9999 -9999 -9999 -9999 -9999 -9999 -9999 -9999 -9999 -9999 -9999 -9999 -9999 -9999 -9999 -9999 -9999 -9999 -9999 -9999 -9999 -9999 -9999 -9999 -9999 -9999
-9999 -9999 -9999 -9999 -9999 -9999 -9999 -9999 -9999 -9999 -9999 -9999 -9999 -9999 -9999 -9999 -9999 -9999 -9999 -9999 -9999 -9999 1186.7 1184.7 1179.4 1172.5 1167.5 1163.3 1159.5 1155.6 1150.9 1145.7 1140.3 1133.6 1124.9 1117.3 1111.7 1106.9 1102.2 1097.3 1092.4 1087.7 1083.8 1080.6 1078 1076.1 1073.8 1070.2 1065.9 1062 1058.9 1055.8 1052.3 1049.7 1047.8 1045.7 1043 1040 1035.8 1029.8 1024.4 1020.9 1018.6 1016.4 1014.3 1012 1009.4 1006.4 1003.5 1000.8 998.19 995.14 991.74 988.66 985.64 982.47 979.2 975.8 970.92 964.59 958.66 953.54 948.44 943.01 937.57 931.76 925.44 919 911.07 901.47 894.95 890.67 886.12 881.08 875.85 870.13 863.48 856.1 850.06 845.71 842.04 837.76 832.86 828.74 825.19 821.58 818.3 816.59 817.47 820.93 825.05 828.56 832.02 836.84 842.1 848.24 855.13 861.46 867.23 873.38 879.62 885.53 891.99 898.94 905.64 912.03 917.7 922.16 926.02 930.56 936.98 943.17 948.48 953.92 959.44 965.36 972.46 979.1 985.3 991.57 997.8 1006.3 1017.7 1028.3 1035.6 1040.1 1042.2 1042.8 -9999 -9999 -9999 -9999 -9999 -9999 -9999 -9999 -9999 -9999 -9999 -9999 -9999 -9999 -9999 -9999 -9999 -9999 -9999 -9999 -9999 -9999 -9999 -9999 -9999 -9999 -9999 -9999 -9999 -9999 -9999 -9999 -9999 -9999 -9999 -9999 -9999 -9999 -9999 -9999 -9999 -9999 -9999 -9999 -9999 -9999 -9999 -9999 -9999 -9999 -9999
-9999 -9999 -9999 -9999 -9999 -9999 -9999 -9999 -9999 -9999 -9999 -9999 -9999 -9999 -9999 -9999 -9999 -9999 -9999 -9999 -9999 1187.6 1187 1183.7 1178 1171.3 1165.4 1160.5 1156.5 1152.4 1148 1143.4 1138.6 1132.6 1124.8 1116.8 1110.4 1105 1099.7 1094.1 1088.9 1085.3 1082.2 1079 1075.9 1073.5 1071.2 1068.1 1064.8 1061.3 1057.8 1054.3 1050.9 1048 1045.3 1042.5 1039.7 1036.4 1031.6 1026.2 1022.1 1019.4 1017.3 1015.3 1013.2 1010.8 1008 1005.2 1002.4 999.67 997.03 994.17 991.08 988.09 985.17 982.19 979.17 975.89 970.81 964.29 958.48 953.51 948.47 942.95 937.36 931.39 924.97 918.37 910.23 900.9 894.7 890.65 886.01 880.55 874.95 868.94 862.01 854.74 849.28 845.37 841.87 837.75 832.93 828.64 824.82 821.09 817.56 815.14 815.62 819.33 824 828.39 832.23 836.86 842.66 849.73 856.91 863.28 869.55 875.84 881.4 886.92 893.37 900.54 907.65 914.43 920.43 925.12 929.36 934.55 940.38 945.56 950.22 955 959.85 965.37 972.31 978.91 985.03 991.61 998.82 1008 1019.2 1029 1035.9 1040.3 1042.1 1042.6 -9999 -9999 -9999 -9999 -9999 -9999 -9999 -9999 -9999 -9999 -9999 -9999 -9999 -9999 -9999 -9999 -9999 -9999 -9999 -9999 -9999 -9999 -9999 -9999 -9999 -9999 -9999 -9999 -9999 -9999 -9999 -9999 -9999 -9999 -9999 -9999 -9999 -9999 -9999 -9999 -9999 -9999 -9999 -9999 -9999 -9999 -9999 -9999 -9999 -9999 -9999
-9999 -9999 -9999 -9999 -9999 -9999 -9999 -9999 -9999 -9999 -9999 -9999 -9999 -9999 -9999 -9999 -9999 -9999 -9999 -9999 -9999 1187.4 1186.4 1182.5 1176.7 1170.3 1164 1158.5 1153.9 1149.5 1145.1 1140.9 1136.2 1130.3 1123.2 1116 1109.8 1104.5 1098.9 1092.2 1086.1 1082.9 1080.3 1077.3 1074.1 1071.1 1068.5 1065.9 1063 1059.9 1056.5 1053.4 1050.3 1047.2 1043.8 1040.1 1036.2 1031.4 1026.9 1023.2 1020.1 1017.7 1015.8 1014.1 1011.8 1009 1006.2 1003.5 1000.9 998.28 995.63 992.93 990.18 987.37 984.54 981.7 978.88 975.67 970.29 963.55 957.81 952.71 947.65 942.25 936.55 930.41 923.99 917.14 908.77 900.27 894.4 890.2 885.32 879.49 873.54 867.24 860.19 853.04 848.18 844.78 841.36 837.26 832.57 828.29 824.39 820.61 816.91 813.88 814.28 818.43 823.28 828.13 832.26 836.6 842.44 849.93 857.42 863.94 870.5 877.01 882.25 887.83 894.3 901.43 908.85 916.26 922.95 928.08 932.58 937.77 942.75 947.29 951.87 956.42 961 966.71 973.72 980.33 986.35 993.28 1001.7 1011 1020.6 1028.9 1035.6 1040 1041.8 1042.3 -9999 -9999 -9999 -9999 -9999 -9999 -9999 -9999 -9999 -9999 -9999 -9999 -9999 -9999 -9999 -9999 -9999 -9999 -9999 -9999 -9999 -9999 -9999 -9999 -9999 -9999 -9999 -9999 -9999 -9999 -9999 -9999 -9999 -9999 -9999 -9999 -9999 -9999 -9999 -9999 -9999 -9999 -9999 -9999 -9999 -9999 -9999 -9999 -9999 -9999 -9999
-9999 -9999 -9999 -9999 -9999 -9999 -9999 -9999 -9999 -9999 -9999 -9999 -9999 -9999 -9999 -9999 -9999 -9999 -9999 -9999 -9999 1186.9 1184.9 1180.9 1175.4 1169.4 1163.1 1157.3 1151.6 1146.7 1142.4 1137.8 1132.7 1126.8 1120.7 1114.8 1109.3 1104.4 1099 1092.1 1085.2 1081.4 1078.3 1075.3 1072.2 1068.9 1066 1063.5 1060.8 1057.9 1054.9 1052 1049.1 1045.8 1042.5 1038.7 1034 1028.6 1024.4 1020.9 1017.7 1015.3 1013.6 1011.8 1009.5 1006.7 1003.9 1001.4 999.08 996.66 994.07 991.47 988.92 986.35 983.74 981.08 978.4 974.91 969.04 962.31 956.75 951.69 946.5 941.07 935.31 929.19 922.85 915.63 906.89 899.3 893.85 889.19 883.91 877.92 871.74 865.03 857.69 851.31 847.12 843.98 840.61 836.51 831.92 827.64 823.76 819.95 816.01 812.67 813.1 817.37 822.3 827.65 832.19 836.34 841.85 849.58 857.12 863.3 869.68 876.34 882.22 888.14 894.78 902.2 910.04 917.73 924.51 929.91 934.75 939.65 944.41 948.93 953.37 957.83 962.79 968.97 975.71 982.25 988.74 996.22 1004.7 1012.8 1020.4 1027.9 1034.7 1039.2 1041.1 1041.7 1042.2 -9999 -9999 -9999 -9999 -9999 -9999 -9999 -9999 -9999 -9999 -9999 -9999 -9999 -9999 -9999 -9999 -9999 -9999 -9999 -9999 -9999 -9999 -9999 -9999 -9999 -9999 -9999 -9999 -9999 -9999 -9999 -9999 -9999 -9999 -9999 -9999 -9999 -9999 -9999 -9999 -9999 -9999 -9999 -9999 -9999 -9999 -9999 -9999 -9999 -9999
-9999 -9999 -9999 -9999 -9999 -9999 -9999 -9999 -9999 -9999 -9999 -9999 -9999 -9999 -9999 -9999 -9999 -9999 -9999 -9999 1186.9 1186 1183.2 1179.2 1174.1 1168.5 1162.5 1156.2 1150 1144.6 1139.6 1134.4 1129 1123.4 1118.3 1113.5 1108.7 1104 1098.9 1092.5 1085.2 1079.5 1075.6 1072.6 1069.5 1066.3 1063.6 1061 1058.4 1055.7 1053.1 1050.5 1047.5 1044.2 1040.9 1037.2 1032.3 1027.2 1023.1 1019.4 1015.8 1013 1010.8 1008.5 1006.2 1003.9 1001.6 999.25 997.07 994.81 992.35 989.84 987.4 985.03 982.64 980.24 977.91 973.94 967.28 960.75 955.41 950.44 945.21 939.71 934.03 928.06 921.77 914.17 905.04 898.14 893.02 887.99 882.49 876.23 869.25 861.92 854.89 849.73 846.2 843.14 839.65 835.51 831.1 826.88 823.05 819.29 815.07 811.61 812.07 815.9 820.71 826.67 831.82 836.76 842.23 849.42 856.78 862.51 868.42 875.94 882.43 888.23 894.97 902.62 910.42 917.99 924.82 930.84 936.43 941.21 945.84 950.44 954.79 959.47 965.15 971.58 978.03 984.33 990.96 998.76 1006.6 1013 1019.1 1026.1 1033.2 1037.9 1039.7 1040.5 -9999 -9999 -9999 -9999 -9999 -9999 -9999 -9999 -9999 -9999 -9999 -9999 -9999 -9999 -9999 -9999 -9999 -9999 -9999 -9999 -9999 -9999 -9999 -9999 -9999 -9999 -9999 -9999 -9999 -9999 -9999 -9999 -9999 -9999 -9999 -9999 -9999 -9999 -9999 -9999 -9999 -9999 -9999 -9999 -9999 -9999 -9999 -9999 -9999 -9999 -9999
-9999 -9999 -9999 -9999 -9999 -9999 -9999 -9999 -9999 -9999 -9999 -9999 -9999 -9999 -9999 -9999 -9999 -9999 -9999 -9999 1186.2 1184.5 1181.5 1177.5 1172.8 1167.3 1161.4 1155.1 1148.9 1143.3 1137.8 1131.7 1125.5 1120.4 1116.1 1112.1 1107.7 1103.3 1098.7 1092.7 1085 1077.3 1072.4 1069 1066.1 1063.3 1061 1058.6 1056.1 1053.6 1051.2 1048.7 1045.7 1042.5 1039.2 1035.5 1030.8 1026.1 1022.1 1018.3 1014.7 1011.5 1008 1004.8 1002.6 1001 999.11 996.99 994.96 992.87 990.58 988.19 985.83 983.58 981.39 979.22 976.78 972.3 965.27 958.7 953.42 948.59 943.53 938.17 932.71 926.98 920.6 912.64 903.69 897.23 892.04 886.63 880.79 874.07 866.15 858.38 852.46 848.46 845.3 842.07 838.34 834.24 830.05 825.85 821.96 818.12 813.71 810.47 811.19 814.8 819.54 825.9 831.86 837.81 843.59 850.16 857 862.85 869.25 877.32 883.79 889.17 895.23 902.1 909.53 916.87 923.54 930.22 936.95 942.38 947.19 951.94 956.62 961.96 968.17 974.31 980.36 986.04 992.21 999.39 1006 1011.4 1016.9 1023.4 1030.6 1035.7 1038.4 1039.6 -9999 -9999 -9999 -9999 -9999 -9999 -9999 -9999 -9999 -9999 -9999 -9999 -9999 -9999 -9999 -9999 -9999 -9999 -9999 -9999 -9999 -9999 -9999 -9999 -9999 -9999 -9999 -9999 -9999 -9999 -9999 -9999 -9999 -9999 -9999 -9999 -9999 -9999 -9999 -9999 -9999 -9999 -9999 -9999 -9999 -9999 -9999 -9999 -9999 -9999 -9999
-9999 -9999 -9999 -9999 -9999 -9999 -9999 -9999 -9999 -9999 -9999 -9999 -9999 -9999 -9999 -9999 -9999 -9999 -9999 -9999 1185 1182.8 1179.7 1175.9 1171.4 1165.7 1159.7 1153.7 1148 1142.6 1137.1 1130.2 1122.8 1117.9 1113.9 1110.2 1106.3 1102.4 1098.1 1092.3 1084.4 1075.5 1069.1 1064.8 1062.1 1060.2 1058.2 1056 1053.8 1051.6 1049.3 1046.6 1043.6 1040.5 1037.3 1033.6 1029.1 1024.8 1020.9 1017.4 1013.9 1010.2 1005.9 1002 999.86 998.21 996.21 994.3 992.63 990.81 988.72 986.49 984.25 982.13 980.13 977.94 974.86 970 963.27 956.69 951.25 946.14 941.29 936.1 931.02 925.82 919.25 911 902.82 896.6 891.04 885.14 878.66 871.17 862.82 855.56 850.9 847.46 844.22 840.64 836.66 832.61 828.53 824.29 820.32 816.2 811.71 809.07 810.47 814.45 819.46 826.12 832.76 839.32 845.46 851.67 858.04 864.68 872.08 879.56 885.65 890.51 895.27 900.52 907.29 914.67 921.25 928.22 936.03 942.91 948.46 953.79 959.45 965.52 971.33 976.32 981.53 986.64 992.24 998.27 1003.7 1008.6 1013.8 1019.7 1026.2 1032.1 1036.3 1038.4 1038.8 -9999 -9999 -9999 -9999 -9999 -9999 -9999 -9999 -9999 -9999 -9999 -9999 -9999 -9999 -9999 -9999 -9999 -9999 -9999 -9999 -9999 -9999 -9999 -9999 -9999 -9999 -9999 -9999 -9999 -9999 -9999 -9999 -9999 -9999 -9999 -9999 -9999 -9999 -9999 -9999 -9999 -9999 -9999 -9999 -9999 -9999 -9999 -9999 -9999 -9999
-9999 -9999 -9999 -9999 -9999 -9999 -9999 -9999 -9999 -9999 -9999 -9999 -9999 -9999 -9999 -9999 -9999 -9999 -9999 1184.5 1183.5 1181 1177.9 1174.4 1169.7 1163.7 1157.7 1152.3 1147 1142 1136.7 1129.3 1121.4 1116 1111.6 1108 1104.6 1101.2 1097.1 1091.3 1083.5 1074.4 1066.4 1060.8 1058.2 1056.8 1055.1 1053.3 1051.5 1049.5 1047.2 1044.4 1041.3 1038.3 1035.2 1031.4 1027.2 1023.1 1019.4 1016.1 1012.9 1009 1004.7 1001.1 998.49 995.87 993.03 991.19 989.96 988.46 986.61 984.53 982.5 980.6 978.67 976.06 972.15 967.21 961.36 955.33 949.76 944.08 939.15 933.88 929.23 924.62 917.81 909.52 902.24 895.87 889.63 883.4 876.45 868.31 860.43 854.38 850.07 846.34 842.77 838.76 834.55 830.49 826.31 822.02 818.05 813.61 809.19 807.48 810.05 814.91 820.45 827.33 834.3 840.95 847.27 853.56 859.89 867.19 874.95 881.11 886.75 891.21 894.8 898.48 904.54 912.3 919.17 926.1 934.42 942.67 949.35 955.78 962.86 969.24 973.62 977.12 981.23 985.97 991.15 996.13 1000.7 1005.4 1010.3 1015.6 1020.9 1026.9 1032 1035.4 1036.9 -9999 -9999 -9999 -9999 -9999 -9999 -9999 -9999 -9999 -9999 -9999 -9999 -9999 -9999 -9999 -9999 -9999 -9999 -9999 -9999 -9999 -9999 -9999 -9999 -9999 -9999 -9999 -9999 -9999 -9999 -9999 -9999 -9999 -9999 -9999 -9999 -9999 -9999 -9999 -9999 -9999 -9999 -9999 -9999 -9999 -9999 -9999 -9999 -9999 -9999
-9999 -9999 -9999 -9999 -9999 -9999 -9999 -9999 -9999 -9999 -9999 -9999 -9999 -9999 -9999 -9999 -9999 -9999 -9999 -9999 1181.6 1179.2 1176.3 1172.7 1167.5 1161.3 1156 1151.2 1146.3 1141.3 1135.6 1128 1120.3 1114.7 1110.2 1106.4 1103 1099.7 1095.4 1089.2 1081.8 1073.4 1064.8 1058.7 1055.2 1052.9 1051.4 1050.4 1049.3 1047.4 1044.7 1041.7 1038.8 1036 1032.8 1028.9 1024.9 1021.2 1017.8 1014.7 1011.4 1007.8 1004 1000.7 997.64 994.33 990.93 988.59 987.18 985.79 984.05 982.07 980.38 978.65 976.26 972.83 968.5 963.97 959.45 954.53 949.37 944.15 938.72 933.06 928.57 923.83 916.79 908.95 902.05 894.57 887.12 881.23 875.02 867.5 860.69 854.74 849.16 844.59 840.87 836.45 831.94 827.76 823.28 819.01 815.13 810.7 806.63 806.18 810.31 816.05 821.78 828.55 835.59 842.23 848.66 855.49 862.15 868.87 875.57 881 886.05 890.38 893.75 897.01 902.78 910.92 918.5 925.54 933.59 941.9 949.45 957.07 965.16 971.22 974.05 976.83 980.28 984.61 989.32 993.71 998.01 1002.5 1007.1 1011.7 1016.1 1020.5 1025 1029.7 1033.4 1034.5 -9999 -9999 -9999 -9999 -9999 -9999 -9999 -9999 -9999 -9999 -9999 -9999 -9999 -9999 -9999 -9999 -9999 -9999 -9999 -9999 -9999 -9999 -9999 -9999 -9999 -9999 -9999 -9999 -9999 -9999 -9999 -9999 -9999 -9999 -9999 -9999 -9999 -9999 -9999 -9999 -9999 -9999 -9999 -9999 -9999 -9999 -9999 -9999 -9999
-9999 -9999 -9999 -9999 -9999 -9999 -9999 -9999 -9999 -9999 -9999 -9999 -9999 -9999 -9999 -9999 -9999 -9999 -9999 -9999 1179.6 1178 1175.5 1171.3 1165.4 1159.2 1154.4 1150.1 1145.3 1140.2 1134 1126.2 1119.2 1113.9 1109.4 1105.3 1101.6 1097.8 1093 1087 1080.2 1072.8 1064.7 1058.1 1052.6 1049 1047.7 1047 1045.8 1043.7 1041.2 1038.8 1036.4 1033.6 1030.2 1026.4 1022.8 1019.2 1015.9 1012.7 1009.7 1006.5 1003.2 999.98 996.79 993.54 990.51 988.01 985.75 983.29 980.92 979.15 977.57 975.08 971.7 967.92 964.26 960.77 957.19 953.14 948.58 944.02 938.84 933.33 928.36 923.54 918.08 911.97 904.54 895.07 886.6 880.41 874.91 868.5 861.54 854.66 848.15 842.97 838.75 834.1 829.57 824.9 819.89 815.63 811.64 807.45 804.82 806.24 811.58 817.42 822.52 828.84 836.28 843.18 849.54 856.28 862.75 868.91 874.89 879.83 884.22 888.24 892.03 896.3 902.52 910.71 918.89 926.35 934.14 941.78 949.07 956.41 963.92 969.79 972.99 975.95 979.4 983.38 987.5 991.46 995.34 999.46 1003.8 1008.2 1012.3 1016.1 1019.8 1023.9 1027.7 1030.3 1030.9 -9999 -9999 -9999 -9999 -9999 -9999 -9999 -9999 -9999 -9999 -9999 -9999 -9999 -9999 -9999 -9999 -9999 -9999 -9999 -9999 -9999 -9999 -9999 -9999 -9999 -9999 -9999 -9999 -9999 -9999 -9999 -9999 -9999 -9999 -9999 -9999 -9999 -9999 -9999 -9999 -9999 -9999 -9999 -9999 -9999 -9999 -9999 -9999
-9999 -9999 -9999 -9999 -9999 -9999 -9999 -9999 -9999 -9999 -9999 -9999 -9999 -9999 -9999 -9999 -9999 -9999 -9999 -9999 1178.3 1177.1 1174.2 1169.4 1163.2 1157.7 1153.3 1148.9 1144 1138.6 1131.6 1123.8 1117.9 1113.2 1108.7 1104.4 1100.5 1096.1 1090.7 1084.9 1078.9 1072.5 1065 1058.3 1052.5 1047.6 1043.4 1040.8 1040.1 1039.2 1037.8 1036 1033.6 1030.8 1027.6 1024.1 1020.7 1017.3 1014 1011 1008.1 1005.1 1002.1 999.02 995.97 993.03 990.31 987.81 985.21 982.31 979.16 975.65 971.92 968.95 966.46 963.96 961.27 958.37 955.1 951.32 947.11 942.76 937.96 932.73 927.7 922.99 918.33 913.09 906.16 897.69 889.47 881.82 874.63 867.61 860.37 853.23 846.84 841.62 837.11 832.82 828.24 823.28 818.21 812.99 807.75 803.87 803.54 806.83 812.34 817.92 822.96 829.07 836.54 843.72 850.09 856.02 861.4 866.69 872.14 876.9 881.31 886.31 891.19 896.19 902.67 910.94 919.42 927.14 934.72 942.03 948.7 954.5 960.36 966.65 971.76 974.94 978.28 982 985.35 988.54 992.04 995.84 999.96 1004.2 1008.4 1012.5 1016.4 1020.1 1023.6 1026.8 1028.8 -9999 -9999 -9999 -9999 -9999 -9999 -9999 -9999 -9999 -9999 -9999 -9999 -9999 -9999 -9999 -9999 -9999 -9999 -9999 -9999 -9999 -9999 -9999 -9999 -9999 -9999 -9999 -9999 -9999 -9999 -9999 -9999 -9999 -9999 -9999 -9999 -9999 -9999 -9999 -9999 -9999 -9999 -9999 -9999 -9999 -9999 -9999 -9999
-9999 -9999 -9999 -9999 -9999 -9999 -9999 -9999 -9999 -9999 -9999 -9999 -9999 -9999 -9999 -9999 -9999 -9999 -9999 -9999 1177.3 1176 1172.5 1167.2 1161.5 1156.9 1152.7 1147.9 1142.6 1136.6 1129.4 1122.1 1116.6 1112.1 1107.7 1103.3 1099.1 1093.8 1088.1 1082.8 1077.7 1072 1065.3 1058.9 1053.1 1047.1 1040.9 1036.7 1035.1 1034.5 1033.7 1032.2 1030.1 1027.8 1025.1 1021.9 1018.6 1015.4 1012.2 1009.3 1006.5 1003.7 1000.8 997.82 994.99 992.31 989.72 987.09 984.27 981.38 977.93 973.1 967.86 964.5 962.36 960.49 958.4 955.94 952.85 949.14 945.15 941.05 936.63 931.8 926.93 922.31 918.08 913.48 907.07 899.42 891.09 882.45 874.08 866.25 858.59 851.43 845.54 840.59 835.94 831.66 826.99 821.87 816.58 810.64 804.91 801.76 803.06 807.41 812.83 818.08 823.03 828.68 835.46 842.79 849.87 855.21 859.28 863.47 868.08 873.19 879.22 885.87 891.43 896.28 902.55 910.87 919.6 927.43 934.55 941.41 947.56 952.26 956.71 963.24 970.38 974.04 976.55 979.38 982.07 984.9 988.28 991.98 995.98 1000.1 1004.5 1008.9 1012.9 1017.1 1021.5 1025.4 1027.7 -9999 -9999 -9999 -9999 -9999 -9999 -9999 -9999 -9999 -9999 -9999 -9999 -9999 -9999 -9999 -9999 -9999 -9999 -9999 -9999 -9999 -9999 -9999 -9999 -9999 -9999 -9999 -9999 -9999 -9999 -9999 -9999 -9999 -9999 -9999 -9999 -9999 -9999 -9999 -9999 -9999 -9999 -9999 -9999 -9999 -9999 -9999 -9999
-9999 -9999 -9999 -9999 -9999 -9999 -9999 -9999 -9999 -9999 -9999 -9999 -9999 -9999 -9999 -9999 -9999 -9999 -9999 1176.7 1176.5 1174.6 1170.5 1165.3 1160.4 1156.3 1152 1147.1 1141.4 1134.9 1128 1121.3 1115.7 1111.1 1106.2 1101.5 1096.4 1090.8 1085.5 1081 1076.5 1071.2 1065.2 1059.3 1053.7 1047.1 1040 1034.7 1031.4 1030 1029.1 1028 1026.4 1024.6 1022.4 1019.6 1016.5 1013.4 1010.5 1007.7 1005 1002.2 999.27 996.34 993.7 991.23 988.68 985.86 982.98 980.28 976.72 971.39 965.81 962.14 959.38 957.21 955.23 952.98 950.14 946.74 943.18 939.42 935.31 930.94 926.28 921.77 917.87 913.62 907.43 899.86 891.19 881.77 872.84 864.8 856.99 849.87 844.18 839.47 834.91 830.49 825.67 820.37 814.96 808.89 803.02 800.73 803.21 808.07 813.2 817.99 822.64 827.73 833.52 840.14 847.22 852.49 856.1 860.1 865.24 871.34 878.57 885.98 891.67 896.14 902.04 910.33 919.25 927.08 933.79 939.95 945.24 949.39 953.63 960.35 968.43 972.71 974.39 975.89 977.86 980.55 984.07 987.88 991.87 996.08 1000.6 1005.3 1010.1 1015.1 1020.3 1024.9 1027.2 -9999 -9999 -9999 -9999 -9999 -9999 -9999 -9999 -9999 -9999 -9999 -9999 -9999 -9999 -9999 -9999 -9999 -9999 -9999 -9999 -9999 -9999 -9999 -9999 -9999 -9999 -9999 -9999 -9999 -9999 -9999 -9999 -9999 -9999 -9999 -9999 -9999 -9999 -9999 -9999 -9999 -9999 -9999 -9999 -9999 -9999 -9999 -9999
-9999 -9999 -9999 -9999 -9999 -9999 -9999 -9999 -9999 -9999 -9999 -9999 -9999 -9999 -9999 -9999 -9999 -9999 -9999 1176.5 1175.7 1173.2 1168.8 1163.9 1159.8 1155.6 1151.1 1146.2 1140.4 1134.1 1127.8 1121.4 1115.4 1110.5 1104.9 1099.3 1093.3 1087.7 1083.3 1079.4 1075.3 1070.3 1064.7 1059.3 1053.8 1046.8 1039.4 1033.6 1028.9 1026.4 1025.1 1024.1 1023 1021.6 1019.7 1017.2 1014.2 1011.4 1008.6 1005.9 1003.3 1000.6 997.65 994.73 992.23 989.85 987.26 984.34 981.51 978.81 975.04 969.78 964.63 960.87 957.39 954.59 952.24 949.82 947.19 944.34 941.32 937.89 934.02 930.02 925.68 921.51 917.88 913.62 907.38 899.49 890.38 880.32 871.11 863.19 855.51 848.58 843.06 838.57 834.03 829.29 824.25 818.78 813.29 807.37 801.89 800.7 803.62 808.37 812.98 817.36 821.77 826.38 831.34 836.88 843.04 848.29 852.5 857.5 863.96 871.07 878.33 885.44 890.98 895.54 901.4 909.65 918.61 926.35 932.67 938 942.33 946.31 950.92 957.38 964.77 969.12 970.63 971.6 973.4 976.35 980.2 984.16 988.2 992.63 997.37 1002.5 1008.1 1013.7 1019.2 1024.1 1026.5 -9999 -9999 -9999 -9999 -9999 -9999 -9999 -9999 -9999 -9999 -9999 -9999 -9999 -9999 -9999 -9999 -9999 -9999 -9999 -9999 -9999 -9999 -9999 -9999 -9999 -9999 -9999 -9999 -9999 -9999 -9999 -9999 -9999 -9999 -9999 -9999 -9999 -9999 -9999 -9999 -9999 -9999 -9999 -9999 -9999 -9999 -9999 -9999
-9999 -9999 -9999 -9999 -9999 -9999 -9999 -9999 -9999 -9999 -9999 -9999 -9999 -9999 -9999 -9999 -9999 -9999 -9999 1175.8 1174.7 1171.9 1167.9 1163.6 1159.3 1154.7 1149.9 1144.9 1139.7 1134.2 1128.1 1121.5 1115.6 1110.3 1104.6 1098.2 1091.5 1085.7 1081.2 1077.4 1073.4 1068.9 1063.5 1058.2 1052.5 1045.3 1038 1032.4 1028 1024.9 1022.8 1021.1 1020 1018.8 1017.1 1014.7 1011.9 1009.2 1006.5 1003.9 1001.3 998.67 995.98 993.23 990.81 988.27 985.54 982.67 979.85 976.79 972.7 967.7 963.07 959.51 956.29 953.16 950.16 947.22 944.59 942.14 939.46 936.22 932.58 928.79 924.99 921.44 917.91 913.37 907.03 898.9 889.29 878.91 869.51 861.46 853.96 847.49 842.58 838.28 833.37 828.11 822.82 817.27 811.57 805.58 801.14 800.7 803.78 807.83 811.8 816.05 820.44 824.79 829.34 834.27 839.33 844.2 849.53 855.96 863.07 870.63 877.29 883.74 889.22 894.43 900.72 908.94 917.71 925.31 931.26 935.75 939.46 943.38 948.1 953.8 959.49 963.19 965.16 966.81 969.23 972.88 977.12 981.17 985.3 990.03 995.09 1000.7 1006.7 1012.5 1017.9 1022.5 1025.3 -9999 -9999 -9999 -9999 -9999 -9999 -9999 -9999 -9999 -9999 -9999 -9999 -9999 -9999 -9999 -9999 -9999 -9999 -9999 -9999 -9999 -9999 -9999 -9999 -9999 -9999 -9999 -9999 -9999 -9999 -9999 -9999 -9999 -9999 -9999 -9999 -9999 -9999 -9999 -9999 -9999 -9999 -9999 -9999 -9999 -9999 -9999 -9999
-9999 -9999 -9999 -9999 -9999 -9999 -9999 -9999 -9999 -9999 -9999 -9999 -9999 -9999 -9999 -9999 -9999 -9999 -9999 1175.2 1173.9 1170.9 1167 1163 1158.6 1153.7 1148.7 1143.6 1138.9 1133.6 1127.3 1120.9 1115.2 1109.9 1104.5 1098.2 1091.3 1085.1 1080.1 1075.6 1071.1 1066.3 1061.2 1056.1 1050.1 1043.1 1036.4 1031.3 1027.2 1023.8 1021.2 1019 1017.2 1015.7 1013.8 1011.9 1009.8 1007.3 1004.7 1002.1 999.41 996.91 994.45 991.79 989.34 986.63 983.8 980.98 978.11 974.75 970.45 965.63 961.34 958.13 955.02 951.67 948.36 945.22 942.58 940.29 937.71 934.58 931.22 927.64 924.29 921.21 917.63 912.86 906.43 898.09 888.14 877.67 868.24 860.27 853.15 847.1 842.49 837.93 832.7 827.17 821.64 815.95 810.11 803.93 799.86 799.86 803.07 806.7 810.27 814.44 818.73 822.99 827.52 832.31 836.85 841.66 847.71 854.55 861.42 869.04 875.47 881.64 887.29 892.94 899.39 907.36 915.85 923.38 929.27 933.02 936.44 940.18 944.82 950.25 955.07 958.34 960.49 962.5 965.39 969.6 974.17 978.41 982.76 987.69 992.95 998.72 1004.7 1010.8 1016.4 1021.1 1024.1 -9999 -9999 -9999 -9999 -9999 -9999 -9999 -9999 -9999 -9999 -9999 -9999 -9999 -9999 -9999 -9999 -9999 -9999 -9999 -9999 -9999 -9999 -9999 -9999 -9999 -9999 -9999 -9999 -9999 -9999 -9999 -9999 -9999 -9999 -9999 -9999 -9999 -9999 -9999 -9999 -9999 -9999 -9999 -9999 -9999 -9999 -9999 -9999
-9999 -9999 -9999 -9999 -9999 -9999 -9999 -9999 -9999 -9999 -9999 -9999 -9999 -9999 -9999 -9999 -9999 -9999 -9999 1174.8 1173.4 1170.2 1166.4 1162.6 1158.3 1153 1147.8 1142.8 1137.9 1132.3 1126 1120 1114.6 1109.7 1104.9 1099.7 1093 1086 1080 1074 1068 1062.8 1057.7 1052.8 1046.7 1040.2 1034.7 1030.5 1026.8 1023.5 1020.4 1017.7 1014.8 1012.2 1009.8 1008.7 1007.7 1005.5 1003.1 1000.5 997.85 995.33 992.84 990.29 987.86 985 982.07 979.23 976.32 972.78 968.37 963.75 959.84 956.56 953.72 950.49 947.08 943.82 941.16 938.78 936.1 933.01 929.84 926.67 923.48 920.44 916.92 911.89 905.28 896.73 886.63 876.31 867.2 859.67 853.18 847.43 842.32 837.67 832 826.31 820.63 814.77 808.67 802.3 798.02 798.02 801.26 805.15 808.48 812.27 816.53 821 825.96 830.97 835.68 840.86 846.98 853.48 859.88 866.74 872.68 879.1 885.2 891.11 897.35 904.88 913.06 920.49 926.21 930.07 933.32 936.65 941.13 946.66 951.5 954.65 956.68 958.73 961.96 966.48 971.54 976.36 980.78 985.92 991.18 996.72 1002.5 1008.8 1014.8 1019.7 1023.3 1024.7 -9999 -9999 -9999 -9999 -9999 -9999 -9999 -9999 -9999 -9999 -9999 -9999 -9999 -9999 -9999 -9999 -9999 -9999 -9999 -9999 -9999 -9999 -9999 -9999 -9999 -9999 -9999 -9999 -9999 -9999 -9999 -9999 -9999 -9999 -9999 -9999 -9999 -9999 -9999 -9999 -9999 -9999 -9999 -9999 -9999 -9999 -9999
-9999 -9999 -9999 -9999 -9999 -9999 -9999 -9999 -9999 -9999 -9999 -9999 -9999 -9999 -9999 -9999 -9999 -9999 -9999 1174.4 1173.1 1170.1 1166.2 1162.2 1157.9 1152.4 1146.7 1141.6 1136.6 1131 1125 1119.1 1113.8 1109.2 1104.7 1100.1 1093.7 1086.6 1080.5 1074 1067.2 1061 1054.2 1048.5 1042.9 1037.5 1033.1 1029.5 1026.4 1023.2 1020 1017.3 1014.2 1010.2 1006.3 1004.4 1003.6 1002.3 1000.3 998.02 995.73 993.54 991.28 988.8 986.05 982.9 979.87 977.18 974.21 970.41 966.08 962.03 958.67 955.68 952.78 949.59 946.26 943.22 940.61 937.85 934.62 931.28 928.44 925.65 922.56 919 914.15 907.8 900.69 892.5 883.29 874.09 866.96 861.91 856.72 851.12 845.25 838.1 831.28 824.4 817.85 811.88 805.76 799.77 795.87 795.67 798.68 802.36 805.17 808.44 813.73 820.18 826.21 831.78 835.97 840.03 844.88 850.46 856.51 862.8 869.66 877.98 885.27 890.91 896.21 902.58 909.78 916.28 920.99 924.27 927.13 930.95 937.01 943.74 948 949.3 950.72 954.36 959.23 964.24 969.46 974.81 980.02 985.26 990.44 995.23 1000 1006 1012.4 1017.9 1022.4 1024.9 -9999 -9999 -9999 -9999 -9999 -9999 -9999 -9999 -9999 -9999 -9999 -9999 -9999 -9999 -9999 -9999 -9999 -9999 -9999 -9999 -9999 -9999 -9999 -9999 -9999 -9999 -9999 -9999 -9999 -9999 -9999 -9999 -9999 -9999 -9999 -9999 -9999 -9999 -9999 -9999 -9999 -9999 -9999 -9999 -9999 -9999 -9999
-9999 -9999 -9999 -9999 -9999 -9999 -9999 -9999 -9999 -9999 -9999 -9999 -9999 -9999 -9999 -9999 -9999 -9999 -9999 1173.8 1172.8 1170.2 1166.2 1161.9 1157.2 1151.5 1145.6 1140.4 1135.3 1129.7 1124 1118.3 1112.9 1108.2 1103.9 1099.6 1093.3 1086.3 1080.3 1074.2 1067.2 1060.4 1052.8 1046.2 1040.4 1035.4 1031 1027.6 1025.1 1022.2 1018.9 1016.2 1013.1 1009 1004.8 1002 1000.5 998.87 996.98 995.1 993.33 991.59 989.5 986.84 983.85 980.67 977.66 974.87 971.73 967.95 964.04 960.49 957.38 954.61 951.73 948.56 945.43 942.63 939.93 936.95 933.76 930.64 927.69 924.1 920.29 915.38 909.59 903.93 897.31 890.29 882.97 875 868.24 863.19 858.01 852.58 846.83 839.59 832 823.8 816.56 810.55 804.02 797.54 794.23 793.97 795.94 798.27 800.9 805.44 812.27 819.7 825.65 831.11 835.01 838.09 841.68 847.17 854.4 861.62 869.43 877.73 884.14 888.75 893.41 899.53 906.07 910.91 914.22 917.7 922.12 927.27 933.28 938.82 942.09 943.88 946.67 951.68 957.6 962.96 968.14 973.49 978.66 983.81 988.93 993.71 998.53 1004.4 1010.8 1016.6 1021.5 1024.3 -9999 -9999 -9999 -9999 -9999 -9999 -9999 -9999 -9999 -9999 -9999 -9999 -9999 -9999 -9999 -9999 -9999 -9999 -9999 -9999 -9999 -9999 -9999 -9999 -9999 -9999 -9999 -9999 -9999 -9999 -9999 -9999 -9999 -9999 -9999 -9999 -9999 -9999 -9999 -9999 -9999 -9999 -9999 -9999 -9999 -9999 -9999
-9999 -9999 -9999 -9999 -9999 -9999 -9999 -9999 -9999 -9999 -9999 -9999 -9999 -9999 -9999 -9999 -9999 -9999 -9999 1173.4 1172.5 1169.9 1165.8 1161.3 1156.5 1150.5 1144.4 1139.2 1134.3 1128.6 1122.7 1117.1 1111.8 1107 1102.7 1098.5 1092.2 1085.3 1079.4 1073.6 1066.9 1060.1 1052.9 1045.8 1039.5 1034.1 1029.3 1025.9 1023.5 1020.9 1017.9 1015 1011.8 1007.8 1004.1 1001.2 998.58 995.63 993.47 992.09 990.79 989.24 987.13 984.35 981.4 978.41 975.46 972.49 969.25 965.71 962.23 958.99 955.98 953.26 950.39 947.26 944.28 941.54 938.68 935.68 932.81 929.98 926.74 922.52 918.39 912.79 906.48 901.58 896.19 890.51 884.27 876.86 869.52 862.99 857.01 851.78 846.66 840.55 832.91 824.35 816.82 810.5 803.75 796.85 793.11 792.46 793.23 794.13 796.42 802.54 811.09 818.75 824.02 828.83 832.53 835.59 839.44 845.87 854.18 861.76 869.3 876.25 881.24 885.09 889.95 896.2 901.66 904.93 907.51 912.16 918.99 925.07 929.82 933.43 936.13 939.55 943.98 949.38 955.53 961.21 966.59 971.95 976.84 981.81 986.7 991.59 997.37 1003.9 1010.5 1016.4 1020.8 1022.9 -9999 -9999 -9999 -9999 -9999 -9999 -9999 -9999 -9999 -9999 -9999 -9999 -9999 -9999 -9999 -9999 -9999 -9999 -9999 -9999 -9999 -9999 -9999 -9999 -9999 -9999 -9999 -9999 -9999 -9999 -9999 -9999 -9999 -9999 -9999 -9999 -9999 -9999 -9999 -9999 -9999 -9999 -9999 -9999 -9999 -9999 -9999
-9999 -9999 -9999 -9999 -9999 -9999 -9999 -9999 -9999 -9999 -9999 -9999 -9999 -9999 -9999 -9999 -9999 -9999 1173.1 1173.2 1172.1 1169.2 1165 1160.6 1155.7 1149.4 1143.2 1138.1 1133.3 1127.4 1121.1 1115.6 1110.6 1105.8 1101.4 1097 1090.8 1084 1078 1072.2 1066 1059.5 1052.7 1045.7 1039.3 1033.6 1028.5 1024.9 1022.2 1019.7 1017.4 1014.7 1010.9 1006.5 1003.1 1000.4 997.16 993.17 990.66 989.42 988.13 986.29 984 981.46 978.83 976.04 973.16 970.2 967.06 963.75 960.47 957.41 954.58 951.8 948.82 945.74 942.84 939.98 936.96 934.01 931.27 928.48 925.24 921.5 918.06 912.94 906.25 900.69 896.11 891.22 884.78 877.26 869.52 861.77 855.14 850.21 845.61 840.12 833.02 825.04 817.47 810.71 804.2 797.68 792.95 791.26 791 791.19 792.83 799.24 808.62 816.32 821.43 825.63 829.15 832.99 838.61 846.38 854.48 861.22 867.56 872.86 876.9 880.62 886.47 892.99 896.88 899.2 902.62 908.85 916.82 922.87 926.39 928.82 931.85 936.63 941.67 946.7 952.59 958.4 964.21 969.77 974.53 979.45 984.19 989.49 996.49 1004.1 1011.2 1017.2 1020.7 -9999 -9999 -9999 -9999 -9999 -9999 -9999 -9999 -9999 -9999 -9999 -9999 -9999 -9999 -9999 -9999 -9999 -9999 -9999 -9999 -9999 -9999 -9999 -9999 -9999 -9999 -9999 -9999 -9999 -9999 -9999 -9999 -9999 -9999 -9999 -9999 -9999 -9999 -9999 -9999 -9999 -9999 -9999 -9999 -9999 -9999 -9999 -9999
